ply
format ascii 1.0
comment PCL generated
element vertex 88
property float x
property float y
property float z
property uchar red
property uchar green
property uchar blue
element camera 1
property float view_px
property float view_py
property float view_pz
property float x_axisx
property float x_axisy
property float x_axisz
property float y_axisx
property float y_axisy
property float y_axisz
property float z_axisx
property float z_axisy
property float z_axisz
property float focal
property float scalex
property float scaley
property float centerx
property float centery
property int viewportx
property int viewporty
property float k1
property float k2
end_header
-8.1361 -7.9903 -8.144 200 200 200
-280.91 363.32 25.585 200 200 200
-1.9934 -0.062584 -0.41011 200 200 200
1.5302 1.2352 1 200 200 200
-2.5335 -2.1755 0.99055 200 200 200
0.7401 0.7401 0.7401 200 200 200
-0.13055 0.20806 0.047102 200 200 200
0.17989 0.16613 -0.79137 200 200 200
0.96473 0.96473 1 200 200 200
-1.2298 0.3367 1 200 200 200
-0.49132 0.94074 0.84832 200 200 200
1.3648 1.3648 1.3034 200 200 200
0.98339 1.0056 0.53088 200 200 200
0.61096 -0.64708 -0.64708 200 200 200
1.7004 -1.1795 -2.104 200 200 200
-0.13896 0.90207 0.88077 200 200 200
1.3109 1.3109 1.0298 200 200 200
0.62182 0.93362 -0.032391 200 200 200
-8.244 -6.0866 -8.2692 200 200 200
0.494 1.0784 1 200 200 200
0.66729 0.73579 1 200 200 200
3.4575 -0.96782 -0.72194 200 200 200
-0.65256 -0.55191 0.12618 200 200 200
1.2978 1.1996 1.02 200 200 200
1.1664 1.1123 1.1022 200 200 200
-4.3265 -3.5455 1 200 200 200
0.25526 0.29769 0.73913 200 200 200
0.97061 0.97061 0.97061 200 200 200
-0.2288 -0.22738 -0.95698 200 200 200
-1.3903 -1.4421 1.2362 200 200 200
0.99698 0.99698 1 200 200 200
1.0313 1.0312 1 200 200 200
3.0331 1.5606 -1.0829 200 200 200
-6.5395 -6.5395 -1.1857 200 200 200
0.36917 0.42787 1.017 200 200 200
0.78294 0.82521 0.82521 200 200 200
0.24047 0.23653 0.96923 200 200 200
-4.8392 -2.6803 -1.6987 200 200 200
-0.36157 -0.36157 1.0637 200 200 200
-0.59393 -0.046281 -0.41044 200 200 200
-18.575 -15.664 -18.797 200 200 200
-1.4009 -0.38464 1 200 200 200
0.73532 -0.5484 1 200 200 200
0.57129 0.60397 1.0009 200 200 200
0.99343 0.99395 0.99522 200 200 200
0.9953 0.9925 0.99995 200 200 200
0.99449 1.0014 1.0011 200 200 200
0.99381 0.99752 1 200 200 200
0.99612 0.99732 1.0001 200 200 200
1.0004 1.0004 1.0004 200 200 200
-1.0073 -1.0072 -1.005 200 200 200
1.0069 1.0068 1.0023 200 200 200
1.0005 1.0005 1 200 200 200
0.99919 1.002 1 200 200 200
1.0027 1.0005 -1.0005 200 200 200
0.99684 0.99684 0.99749 200 200 200
1.0003 0.99992 1.0051 200 200 200
1.0005 1.0004 1.0004 200 200 200
1.002 1.0023 0.9995 200 200 200
-1.0034 1.0001 1.0007 200 200 200
0.99673 0.99673 0.99938 200 200 200
-1.01 1.0043 1.0171 200 200 200
0.98239 0.98915 0.98224 200 200 200
-1.0012 -0.99989 1 200 200 200
-1.0055 -1.0041 1 200 200 200
0.99576 1.0016 1.0005 200 200 200
1.0522 1.0526 1.0072 200 200 200
0.99478 1.003 0.99907 200 200 200
1.0068 1.0083 1.0085 200 200 200
0.99623 0.9997 1 200 200 200
1.009 1.0081 1.0005 200 200 200
0.99936 0.99936 0.99936 200 200 200
-0.98021 -0.98131 -0.9821 200 200 200
0.94975 0.94782 0.98987 200 200 200
0.99974 0.99974 1 200 200 200
0.98568 0.99072 1 200 200 200
1.0398 0.9999 -1.0499 200 200 200
1.001 1.001 1.0012 200 200 200
1.0021 1.003 1.0025 200 200 200
0.99957 1.002 1.002 200 200 200
0.99698 0.99834 0.99515 200 200 200
-0.96141 1.0074 1.012 200 200 200
0.94383 0.94383 1.0003 200 200 200
-1.0309 0.97919 0.97841 200 200 200
1.0227 1.0735 1.0234 200 200 200
-1.0096 -1.0606 1 200 200 200
-1.0618 -1.0746 1 200 200 200
0.99393 1.0031 0.98794 200 200 200
0 0 0 1 0 0 0 1 0 0 0 1 0 0 0 0 0 88 1 0 0
