ply
format ascii 1.0
comment PCL generated
element vertex 88
property float x
property float y
property float z
property uchar red
property uchar green
property uchar blue
element camera 1
property float view_px
property float view_py
property float view_pz
property float x_axisx
property float x_axisy
property float x_axisz
property float y_axisx
property float y_axisy
property float y_axisz
property float z_axisx
property float z_axisy
property float z_axisz
property float focal
property float scalex
property float scaley
property float centerx
property float centery
property int viewportx
property int viewporty
property float k1
property float k2
end_header
-8.2595 -8.1159 -8.2526 200 200 200
-280.46 363.32 25.596 200 200 200
-1.9936 -0.062582 -0.41015 200 200 200
1.5321 1.2367 1 200 200 200
-2.5363 -2.1777 0.99106 200 200 200
0.74009 0.74009 0.74009 200 200 200
0.13216 -0.2106 -0.047064 200 200 200
0.17704 0.16333 -0.78882 200 200 200
0.96473 0.96473 1 200 200 200
-1.2288 0.33658 1 200 200 200
-0.49141 0.94095 -0.84935 200 200 200
1.3661 1.3661 1.3038 200 200 200
0.98433 1.0065 0.53101 200 200 200
0.61122 -0.64721 -0.64721 200 200 200
1.7228 -1.1948 -2.1036 200 200 200
0.13675 0.90242 0.88219 200 200 200
1.3066 1.3066 1.0295 200 200 200
-0.62323 0.93436 -0.032329 200 200 200
-8.2418 -6.0936 -8.2664 200 200 200
-0.49042 -1.0928 1 200 200 200
-0.67005 -0.73851 1 200 200 200
3.4869 -0.97687 -0.72201 200 200 200
-0.66241 -0.56055 0.12785 200 200 200
1.2951 1.199 1.02 200 200 200
1.1665 1.1123 1.1023 200 200 200
-4.3319 -3.5498 1 200 200 200
0.25553 0.29799 0.73951 200 200 200
0.97059 0.97059 0.97059 200 200 200
0.23161 0.23015 0.95596 200 200 200
-1.3682 -1.4177 1.2322 200 200 200
0.99698 0.99698 1 200 200 200
1.0305 1.0309 1 200 200 200
3.0337 1.561 1.0842 200 200 200
-6.5454 -6.5454 -1.186 200 200 200
0.36953 0.42825 1.0173 200 200 200
0.78327 0.82535 0.82535 200 200 200
0.24364 0.23959 0.969 200 200 200
4.7625 -2.6812 -1.7013 200 200 200
-0.36039 -0.36039 1.0633 200 200 200
0.59529 -0.046318 -0.40971 200 200 200
-18.569 -15.682 -18.79 200 200 200
1.3908 0.38979 1 200 200 200
-0.73836 0.55045 1 200 200 200
0.57617 0.60971 1.0011 200 200 200
1.0084 1.0095 1.0084 200 200 200
0.9932 0.99203 0.99988 200 200 200
0.9946 1.0014 1.0012 200 200 200
0.99505 0.99876 1 200 200 200
0.99718 0.99834 1.0006 200 200 200
1.0004 1.0004 1.0004 200 200 200
1.0197 1.0195 1.004 200 200 200
0.99093 0.98979 0.99903 200 200 200
1.0005 1.0005 1 200 200 200
0.99842 1.0016 1 200 200 200
1.0029 1.0007 1.0017 200 200 200
0.99777 0.99777 0.9978 200 200 200
1.0012 1.0008 1.0054 200 200 200
1.0009 1.0005 1.0005 200 200 200
1.0152 1.0152 0.99927 200 200 200
0.9875 1.0005 1.0023 200 200 200
0.99347 0.99347 0.99905 200 200 200
1.0122 1.0051 1.0153 200 200 200
0.98212 0.99028 0.9819 200 200 200
0.99394 1.0132 1 200 200 200
1.0096 1.0078 1 200 200 200
1.0043 1.0111 1.0007 200 200 200
-0.27315 -0.19503 0.37337 200 200 200
1.6395 1.2046 1.0199 200 200 200
1.0231 1.1117 1.0567 200 200 200
0.30254 0.3798 1 200 200 200
0.7853 0.79483 0.88664 200 200 200
1.0002 1.0002 1.0002 200 200 200
0.42414 0.43476 1.0217 200 200 200
-2.9458 -3.0295 1.6037 200 200 200
0.99804 0.99804 1 200 200 200
1.2615 1.0919 1 200 200 200
-1.7611 0.41211 0.048676 200 200 200
0.49703 0.49703 0.86991 200 200 200
0.79339 0.81222 0.95752 200 200 200
0.91505 0.97269 0.97269 200 200 200
0.41074 0.43058 1.0042 200 200 200
3.1632 -0.92465 -0.41977 200 200 200
-1.5727 -1.5727 1.1096 200 200 200
0.63081 -0.75775 -1.2281 200 200 200
-1.2653 -1.0914 -1.2946 200 200 200
1.2176 0.43956 1 200 200 200
0.083808 0.48846 1 200 200 200
0.70796 0.67683 0.98846 200 200 200
0 0 0 1 0 0 0 1 0 0 0 1 0 0 0 0 0 88 1 0 0
