ply
format ascii 1.0
comment PCL generated
element vertex 76
property float x
property float y
property float z
property uchar red
property uchar green
property uchar blue
element camera 1
property float view_px
property float view_py
property float view_pz
property float x_axisx
property float x_axisy
property float x_axisz
property float y_axisx
property float y_axisy
property float y_axisz
property float z_axisx
property float z_axisy
property float z_axisz
property float focal
property float scalex
property float scaley
property float centerx
property float centery
property int viewportx
property int viewporty
property float k1
property float k2
end_header
0.023052 0.11597 -0.19284 200 200 200
0.02604 0.11508 -0.19362 200 200 200
0.03939 0.10921 -0.21841 200 200 200
0.074758 0.051179 -0.21652 200 200 200
0.034151 0.026706 -0.16676 200 200 200
0.020968 0.11639 -0.19132 200 200 200
0.031745 0.070608 -0.18114 200 200 200
0.032684 0.067245 -0.18024 200 200 200
0.02504 0.11545 -0.19339 200 200 200
0.033049 0.077789 -0.18252 200 200 200
0.040042 0.041161 -0.17528 200 200 200
0.026265 0.12014 -0.21877 200 200 200
0.029971 0.10882 -0.21529 200 200 200
0.039034 0.099384 -0.21569 200 200 200
0.039034 0.099384 -0.21569 200 200 200
0.039034 0.099384 -0.21569 200 200 200
0.040244 0.093594 -0.21472 200 200 200
0.05174 0.040392 -0.2055 200 200 200
0.053487 0.040215 -0.20617 200 200 200
0.053137 0.043141 -0.20669 200 200 200
0.053137 0.043141 -0.20669 200 200 200
0.053137 0.043141 -0.20669 200 200 200
0.054157 0.038019 -0.2057 200 200 200
0.052284 0.051857 -0.20884 200 200 200
0.049674 0.06599 -0.21221 200 200 200
0.074046 0.059781 -0.2184 200 200 200
0.084968 0.0168 -0.20446 200 200 200
0.073306 0.067199 -0.22091 200 200 200
0.074589 0.06639 -0.22138 200 200 200
0.030025 0.024555 -0.16467 200 200 200
0.019972 0.11743 -0.19144 200 200 200
0.024204 0.11473 -0.19309 200 200 200
0.024204 0.11473 -0.19309 200 200 200
0.023874 0.11647 -0.19343 200 200 200
0.023874 0.11647 -0.19343 200 200 200
0.039858 0.033331 -0.16971 200 200 200
0.032356 0.076775 -0.18182 200 200 200
0.030915 0.095777 -0.18344 200 200 200
0.030915 0.095777 -0.18344 200 200 200
0.038589 0.044941 -0.17582 200 200 200
0.029433 0.099967 -0.21236 200 200 200
0.052334 0.030494 -0.17196 200 200 200
0.031822 0.1025 -0.214 200 200 200
0.031085 0.10775 -0.21525 200 200 200
0.031085 0.10775 -0.21525 200 200 200
0.035533 0.10563 -0.21594 200 200 200
0.038896 0.094655 -0.21453 200 200 200
0.037566 0.10893 -0.21774 200 200 200
0.037767 0.11018 -0.21771 200 200 200
0.044819 0.08614 -0.21331 200 200 200
0.040169 0.10942 -0.21985 200 200 200
0.051412 0.047527 -0.20754 200 200 200
0.048229 0.067407 -0.21213 200 200 200
0.048229 0.067407 -0.21213 200 200 200
0.05415 0.041353 -0.20653 200 200 200
0.05415 0.041353 -0.20653 200 200 200
0.049326 0.068198 -0.21259 200 200 200
0.069566 0.076271 -0.22341 200 200 200
0.076445 0.048784 -0.21543 200 200 200
0.07698 0.051456 -0.21707 200 200 200
0.040358 0.026766 -0.16829 200 200 200
0.046909 0.02843 -0.1701 200 200 200
0.062986 0.01837 -0.18345 200 200 200
0.038774 0.1249 -0.22764 200 200 200
0.038774 0.1249 -0.22764 200 200 200
0.020389 0.11936 -0.19127 200 200 200
0.021779 0.11775 -0.19167 200 200 200
0.043176 0.020343 -0.1669 200 200 200
0.032814 0.12555 -0.225 200 200 200
0.0077821 0.13378 -0.20755 200 200 200
0.022321 0.12234 -0.19085 200 200 200
0.085458 0.035073 -0.22055 200 200 200
0.06705 0.020305 -0.18428 200 200 200
0.054078 0.022354 -0.1729 200 200 200
0.06335 0.019845 -0.17071 200 200 200
0.076232 0.044454 -0.22125 200 200 200
0 0 0 1 0 0 0 1 0 0 0 1 0 0 0 0 0 76 1 0 0
