ply
format ascii 1.0
comment PCL generated
element vertex 76
property float x
property float y
property float z
property uchar red
property uchar green
property uchar blue
element camera 1
property float view_px
property float view_py
property float view_pz
property float x_axisx
property float x_axisy
property float x_axisz
property float y_axisx
property float y_axisy
property float y_axisz
property float z_axisx
property float z_axisy
property float z_axisz
property float focal
property float scalex
property float scaley
property float centerx
property float centery
property int viewportx
property int viewporty
property float k1
property float k2
end_header
0.0016324 0.091297 -0.023919 200 200 200
0.0054423 0.090015 -0.023949 200 200 200
0.032767 0.088825 -0.053094 200 200 200
0.067581 0.007282 -0.053893 200 200 200
-0.0070738 -0.027679 -0.013882 200 200 200
-0.0014792 0.091601 -0.022709 200 200 200
0.0013356 0.029411 -0.019431 200 200 200
0.0016437 0.024881 -0.018945 200 200 200
0.0041908 0.090544 -0.023964 200 200 200
0.0043043 0.038533 -0.018427 200 200 200
0.0049599 -0.0093803 -0.01771 200 200 200
0.018176 0.10523 -0.055798 200 200 200
0.019612 0.088552 -0.053033 200 200 200
0.029713 0.075022 -0.052685 200 200 200
0.029713 0.075022 -0.052685 200 200 200
0.029713 0.075022 -0.052685 200 200 200
0.029972 0.066958 -0.052686 200 200 200
0.032624 -0.0056338 -0.052166 200 200 200
0.035027 -0.0059701 -0.052396 200 200 200
0.035231 -0.0020904 -0.052321 200 200 200
0.035231 -0.0020904 -0.052321 200 200 200
0.035231 -0.0020904 -0.052321 200 200 200
0.035319 -0.0089572 -0.052167 200 200 200
0.03637 0.0096405 -0.052829 200 200 200
0.036687 0.02902 -0.054012 200 200 200
0.06889 0.019018 -0.053994 200 200 200
0.068927 -0.040653 -0.044351 200 200 200
0.070352 0.029466 -0.055344 200 200 200
0.072084 0.028342 -0.055695 200 200 200
-0.012849 -0.030031 -0.013593 200 200 200
-0.0024868 0.093105 -0.022959 200 200 200
0.00297 0.089636 -0.024146 200 200 200
0.00297 0.089636 -0.024146 200 200 200
0.0029382 0.09202 -0.024185 200 200 200
0.0029382 0.09202 -0.024185 200 200 200
0.0014222 -0.019977 -0.013248 200 200 200
0.0030645 0.037178 -0.018135 200 200 200
0.0043188 0.061639 -0.014894 200 200 200
0.0043188 0.061639 -0.014894 200 200 200
0.0039622 -0.004438 -0.017828 200 200 200
0.016444 0.076052 -0.052099 200 200 200
0.016376 -0.024798 -0.01189 200 200 200
0.02046 0.079567 -0.052499 200 200 200
0.020824 0.086968 -0.052845 200 200 200
0.020824 0.086968 -0.052845 200 200 200
0.026341 0.083803 -0.052541 200 200 200
0.028367 0.068475 -0.052667 200 200 200
0.030149 0.088472 -0.053059 200 200 200
0.030544 0.090086 -0.052537 200 200 200
0.033909 0.056157 -0.051185 200 200 200
0.034485 0.089486 -0.054671 200 200 200
0.034131 0.0039389 -0.05281 200 200 200
0.035076 0.031039 -0.05407 200 200 200
0.035076 0.031039 -0.05407 200 200 200
0.036143 -0.0045459 -0.052246 200 200 200
0.036143 -0.0045459 -0.052246 200 200 200
0.03674 0.032024 -0.053984 200 200 200
0.068325 0.042616 -0.057467 200 200 200
0.068738 0.003679 -0.052467 200 200 200
0.070639 0.0074428 -0.053595 200 200 200
0.00063888 -0.028233 -0.013291 200 200 200
0.009089 -0.026852 -0.012397 200 200 200
0.032564 -0.039068 -0.025687 200 200 200
0.038758 0.11313 -0.061085 200 200 200
0.038758 0.11313 -0.061085 200 200 200
-0.0018394 0.095468 -0.021967 200 200 200
-0.0001991 0.093363 -0.022385 200 200 200
0.0025181 -0.036609 -0.012402 200 200 200
0.030057 0.11384 -0.059811 200 200 200
-0.0079717 0.12161 -0.04422 200 200 200
0.00061985 0.098895 -0.019677 200 200 200
0.080735 -0.014262 -0.060006 200 200 200
0.037937 -0.037156 -0.024483 200 200 200
0.01785 -0.034744 -0.01484 200 200 200
0.027195 -0.039529 -0.0091658 200 200 200
0.071046 -0.00055293 -0.061906 200 200 200
0 0 0 1 0 0 0 1 0 0 0 1 0 0 0 0 0 76 1 0 0
