ply
format ascii 1.0
comment PCL generated
element vertex 76
property float x
property float y
property float z
property uchar red
property uchar green
property uchar blue
element camera 1
property float view_px
property float view_py
property float view_pz
property float x_axisx
property float x_axisy
property float x_axisz
property float y_axisx
property float y_axisy
property float y_axisz
property float z_axisx
property float z_axisy
property float z_axisz
property float focal
property float scalex
property float scaley
property float centerx
property float centery
property int viewportx
property int viewporty
property float k1
property float k2
end_header
0.0026181 0.088492 -0.028283 200 200 200
0.0062731 0.087264 -0.028252 200 200 200
0.032632 0.086283 -0.054411 200 200 200
0.065636 0.008729 -0.055027 200 200 200
-0.0055897 -0.025688 -0.019399 200 200 200
-0.00038387 0.088775 -0.027234 200 200 200
0.0023757 0.028953 -0.024631 200 200 200
0.0027099 0.024706 -0.023629 200 200 200
0.0050693 0.087767 -0.02834 200 200 200
0.0051926 0.037702 -0.023556 200 200 200
0.0058913 -0.0081985 -0.023133 200 200 200
0.01877 0.10196 -0.056814 200 200 200
0.020124 0.086012 -0.054442 200 200 200
0.029734 0.073105 -0.054027 200 200 200
0.029734 0.073105 -0.054027 200 200 200
0.029734 0.073105 -0.054027 200 200 200
0.029983 0.065402 -0.054164 200 200 200
0.032533 -0.0034906 -0.053402 200 200 200
0.034807 -0.0038675 -0.053887 200 200 200
0.034998 -0.00022206 -0.053931 200 200 200
0.034998 -0.00022206 -0.053931 200 200 200
0.034998 -0.00022206 -0.053931 200 200 200
0.035085 -0.0065773 -0.053145 200 200 200
0.036076 0.010948 -0.054151 200 200 200
0.036379 0.029384 -0.05501 200 200 200
0.06687 0.01993 -0.054699 200 200 200
0.066875 -0.036929 -0.046541 200 200 200
0.068258 0.029886 -0.055769 200 200 200
0.069945 0.028689 -0.056911 200 200 200
-0.01111 -0.027972 -0.01929 200 200 200
-0.001348 0.090225 -0.027449 200 200 200
0.0038982 0.086887 -0.028608 200 200 200
0.0038982 0.086887 -0.028608 200 200 200
0.0038691 0.089188 -0.028553 200 200 200
0.0038691 0.089188 -0.028553 200 200 200
0.0024516 -0.018536 -0.019417 200 200 200
0.0040225 0.036442 -0.023017 200 200 200
0.0051226 0.059866 -0.020166 200 200 200
0.0051226 0.059866 -0.020166 200 200 200
0.0049706 -0.00332 -0.022574 200 200 200
0.017116 0.074061 -0.053714 200 200 200
0.01676 -0.023071 -0.017682 200 200 200
0.020935 0.077428 -0.053982 200 200 200
0.021284 0.084517 -0.053997 200 200 200
0.021284 0.084517 -0.053997 200 200 200
0.026522 0.081481 -0.053932 200 200 200
0.028459 0.066864 -0.053984 200 200 200
0.030143 0.085948 -0.054344 200 200 200
0.030514 0.087488 -0.053866 200 200 200
0.033719 0.055112 -0.052638 200 200 200
0.034275 0.086935 -0.055642 200 200 200
0.033959 0.0055719 -0.054028 200 200 200
0.034853 0.031351 -0.054757 200 200 200
0.034853 0.031351 -0.054757 200 200 200
0.035863 -0.0024346 -0.053344 200 200 200
0.035863 -0.0024346 -0.053344 200 200 200
0.036428 0.032186 -0.055289 200 200 200
0.066382 0.042313 -0.058279 200 200 200
0.066727 0.0052994 -0.053653 200 200 200
0.068523 0.0089125 -0.054555 200 200 200
0.0017498 -0.026295 -0.019032 200 200 200
0.0098044 -0.025021 -0.018215 200 200 200
0.032328 -0.036066 -0.029778 200 200 200
0.038362 0.10953 -0.061564 200 200 200
0.038362 0.10953 -0.061564 200 200 200
-0.00075271 0.092495 -0.026608 200 200 200
0.00084149 0.090478 -0.026826 200 200 200
0.0035186 -0.034456 -0.018718 200 200 200
0.030086 0.1102 -0.060445 200 200 200
-0.0063223 0.11765 -0.046679 200 200 200
0.0015613 0.095792 -0.024557 200 200 200
0.077932 -0.011191 -0.059212 200 200 200
0.037434 -0.034457 -0.029216 200 200 200
0.018214 -0.032422 -0.020269 200 200 200
0.027068 -0.037654 -0.016589 200 200 200
0.0689 0.001449 -0.062515 200 200 200
0 0 0 1 0 0 0 1 0 0 0 1 0 0 0 0 0 76 1 0 0
