ply
format ascii 1.0
comment PCL generated
element vertex 47
property float x
property float y
property float z
property uchar red
property uchar green
property uchar blue
element camera 1
property float view_px
property float view_py
property float view_pz
property float x_axisx
property float x_axisy
property float x_axisz
property float y_axisx
property float y_axisy
property float y_axisz
property float z_axisx
property float z_axisy
property float z_axisz
property float focal
property float scalex
property float scaley
property float centerx
property float centery
property int viewportx
property int viewporty
property float k1
property float k2
end_header
-0.00073099 0.12333 0.50935 128 128 0
0.074404 0.12231 0.50737 128 128 0
0.10572 0.10848 0.33613 128 128 0
0.18983 0.11491 0.40182 128 128 0
0.23366 0.11194 0.35055 128 128 0
0.45046 1.2439 0.34249 128 128 0
-8.3651e+15 -1.9605e+17 7.5486e+16 128 128 0
0.098163 -0.11808 -0.16859 128 128 0
0.13979 -0.12445 -0.18743 128 128 0
0.096868 -0.11766 -0.16803 128 128 0
0.090089 -0.11685 -0.16502 128 128 0
0.093034 -0.11642 -0.16487 128 128 0
0.016446 0.25169 -0.1469 128 128 0
0.29409 -2.764 -3.0788 128 128 0
0.071878 0.0028888 -0.092066 128 128 0
0.049418 0.055748 -0.057932 128 128 0
0.052043 0.050392 -0.060914 128 128 0
0.045793 0.055479 -0.061826 128 128 0
0.045671 0.057296 -0.05984 128 128 0
0.048876 0.05301 -0.061313 128 128 0
0.049013 0.053084 -0.061051 128 128 0
0.047945 0.053933 -0.061252 128 128 0
0.047529 0.054341 -0.061237 128 128 0
0.046554 0.055497 -0.06096 128 128 0
0.045316 0.05697 -0.060603 128 128 0
0.043517 0.059112 -0.060082 128 128 0
0.040294 0.062864 -0.059251 128 128 0
-0.12023 0.099626 0.4087 128 128 0
-0.068399 0.11562 0.47519 128 128 0
-0.0011259 0.12255 0.51671 128 128 0
0.048347 0.12173 0.50506 128 128 0
0.34939 -0.06347 -0.0093708 128 128 0
-0.69404 8.2364 -2.8913 128 128 0
0.093572 -0.19197 -0.071309 128 128 0
-0.049781 -0.78252 -0.19515 128 128 0
0.032318 -0.47015 -0.12221 128 128 0
0.034573 -0.46128 -0.12129 128 128 0
0.048833 -0.41378 -0.10871 128 128 0
0.06914 -0.35391 -0.089444 128 128 0
-0.095545 -0.093588 -0.067472 128 128 0
0.059367 -0.091555 -0.17003 128 128 0
-0.079662 0.1018 -0.13108 128 128 0
-0.18351 0.2987 -0.022242 128 128 0
-0.29617 0.42656 0.0032426 128 128 0
-0.28454 0.41422 -0.001057 128 128 0
0.10121 -0.32229 -0.051501 128 128 0
0.13957 0.05545 -0.039267 128 128 0
0 0 0 1 0 0 0 1 0 0 0 1 0 0 0 0 0 47 1 0 0
