ply
format ascii 1.0
comment PCL generated
element vertex 47
property float x
property float y
property float z
property uchar red
property uchar green
property uchar blue
element camera 1
property float view_px
property float view_py
property float view_pz
property float x_axisx
property float x_axisy
property float x_axisz
property float y_axisx
property float y_axisy
property float y_axisz
property float z_axisx
property float z_axisy
property float z_axisz
property float focal
property float scalex
property float scaley
property float centerx
property float centery
property int viewportx
property int viewporty
property float k1
property float k2
end_header
-0.00073099 0.12333 0.50935 128 128 0
0.074404 0.12231 0.50737 128 128 0
0.1486 0.12093 0.49541 128 128 0
0.22053 0.1192 0.47366 128 128 0
0.28892 0.11716 0.44253 128 128 0
0.56345 0.10066 0.09992 128 128 0
0.57891 0.097659 0.02642 128 128 0
0.58442 0.094731 -0.048488 128 128 0
0.5799 0.091925 -0.12347 128 128 0
0.56541 0.089292 -0.19718 128 128 0
0.54123 0.086879 -0.26831 128 128 0
0.50777 0.084728 -0.33559 128 128 0
-0.393 0.092263 -0.43259 128 128 0
-0.43997 0.095087 -0.37397 128 128 0
-0.4787 0.098027 -0.30962 128 128 0
-0.5085 0.10103 -0.24067 128 128 0
-0.52884 0.10404 -0.16837 128 128 0
-0.53935 0.10701 -0.094 128 128 0
-0.53984 0.10989 -0.018889 128 128 0
-0.53032 0.11261 0.055622 128 128 0
-0.51094 0.11514 0.12821 128 128 0
-0.48206 0.11743 0.19756 128 128 0
-0.44418 0.11943 0.26246 128 128 0
-0.39799 0.12112 0.32174 128 128 0
-0.34431 0.12246 0.37434 128 128 0
-0.28409 0.12342 0.41932 128 128 0
-0.21842 0.124 0.45588 128 128 0
-0.14846 0.12418 0.48337 128 128 0
-0.075464 0.12395 0.5013 128 128 0
-0.00073099 0.12333 0.50935 128 128 0
0.048354 0.12271 0.5092 128 128 0
-0.0013411 0.081642 -0.61417 128 128 0
0.047729 0.081036 -0.61403 128 128 0
0.12239 0.080429 -0.60553 128 128 0
0.19526 0.080221 -0.58716 128 128 0
0.26503 0.080416 -0.55925 128 128 0
0.33046 0.08101 -0.5223 128 128 0
0.39038 0.081993 -0.47696 128 128 0
0.44372 0.083347 -0.42406 128 128 0
0.55078 0.1035 0.13885 128 128 0
0.52057 0.1065 0.20759 128 128 0
-0.36407 0.091988 -0.46169 128 128 0
-0.30608 0.089443 -0.50941 128 128 0
-0.24224 0.087136 -0.54898 128 128 0
-0.17368 0.085109 -0.57969 128 128 0
-0.10164 0.083397 -0.60099 128 128 0
-0.027394 0.082031 -0.61251 128 128 0
0 0 0 1 0 0 0 1 0 0 0 1 0 0 0 0 0 47 1 0 0
