ply
format ascii 1.0
comment PCL generated
element vertex 46
property float x
property float y
property float z
property uchar red
property uchar green
property uchar blue
element camera 1
property float view_px
property float view_py
property float view_pz
property float x_axisx
property float x_axisy
property float x_axisz
property float y_axisx
property float y_axisy
property float y_axisz
property float z_axisx
property float z_axisy
property float z_axisz
property float focal
property float scalex
property float scaley
property float centerx
property float centery
property int viewportx
property int viewporty
property float k1
property float k2
end_header
0.11714 0.0084968 0.98388 200 200 200
0.13487 -0.014384 0.067339 200 200 200
0.9886 0.1339 -0.090695 200 200 200
-0.053531 0.98454 0.13995 200 200 200
0.1173 -0.049479 0.98178 200 200 200
0.1411 0.023826 -0.037235 200 200 200
0.989 0.14113 -0.058097 200 200 200
-0.033782 0.98788 0.13995 200 200 200
0.1441 -0.016438 0.98027 200 200 200
0.13432 0.11631 -0.013471 200 200 200
0.98393 0.13478 0.09417 200 200 200
0.0037994 0.98638 0.13482 200 200 200
0.09417 0.0037994 0.98638 200 200 200
0.13482 0.09417 0.0037994 200 200 200
0.98638 0.13482 0.080861 200 200 200
0.0044309 0.98757 0.1347 200 200 200
-0.036818 0.011001 0.99028 200 200 200
0.13369 -0.041957 0.015545 200 200 200
0.99 0.13375 0.019377 200 200 200
0.016474 0.99066 0.13398 200 200 200
0.0043867 0.069333 0.98853 200 200 200
0.13409 0.093133 -0.072449 200 200 200
-0.98358 -0.13653 -0.094908 200 200 200
-0.063425 0.9836 0.13962 200 200 200
0.1142 -0.041538 0.98255 200 200 200
0.14081 0.1142 -0.041538 200 200 200
0.98255 0.14081 0.11838 200 200 200
-0.041664 0.98205 0.14084 200 200 200
0.11838 -0.041664 0.98205 200 200 200
0.14084 0.086008 0.012747 200 200 200
-0.98611 -0.14155 0.10139 200 200 200
-0.011772 0.9856 0.13482 200 200 200
0.10859 -0.0020595 0.98489 200 200 200
0.13491 0.083313 0.0017369 200 200 200
0.98737 0.13475 0.11649 200 200 200
0.0041441 0.98398 0.13487 200 200 200
0.11912 0.004803 0.98365 200 200 200
0.13499 0.062885 0.011416 200 200 200
0.98879 0.13493 -0.021342 200 200 200
0.013094 0.9907 0.13373 200 200 200
-0.034931 0.016724 0.99025 200 200 200
0.13378 -0.034931 0.016724 200 200 200
0.99025 0.13378 0.043222 200 200 200
0.067405 0.9878 0.13354 200 200 200
-0.020543 0.069545 0.9883 200 200 200
0.13419 -0.014113 0.072364 200 200 200
0 0 0 1 0 0 0 1 0 0 0 1 0 0 0 0 0 46 1 0 0
