ply
format ascii 1.0
comment PCL generated
element vertex 406
property float x
property float y
property float z
property uchar red
property uchar green
property uchar blue
element camera 1
property float view_px
property float view_py
property float view_pz
property float x_axisx
property float x_axisy
property float x_axisz
property float y_axisx
property float y_axisy
property float y_axisz
property float z_axisx
property float z_axisy
property float z_axisz
property float focal
property float scalex
property float scaley
property float centerx
property float centery
property int viewportx
property int viewporty
property float k1
property float k2
end_header
0.040687 -0.030802 0.085452 41 34 30
0.076026 -0.030765 0.059171 51 38 33
0.0035618 -0.034335 -0.023274 130 107 73
-0.0038524 -0.03066 -0.024067 103 83 49
0.032564 -0.033677 -0.031621 148 122 88
0.0051305 -0.031449 -0.023489 105 84 54
-0.011601 -0.029261 -0.024165 127 111 74
0.04328 -0.030759 -0.031461 147 119 80
-0.028046 -0.012246 -0.010745 63 53 37
0.028346 -0.029914 -0.032473 120 92 56
-0.0090415 -0.027554 -0.019925 129 108 72
-0.0015233 -0.027408 -0.018622 132 112 79
-0.0018251 -0.027957 -0.02464 132 112 79
0.0020296 -0.026087 -0.019324 94 74 42
0.07261 -0.036088 -0.047338 137 105 70
-0.033686 -0.036193 -0.061578 48 40 30
0.010052 -0.023032 -0.021105 81 58 29
0.011309 -0.020645 -0.020987 142 118 81
0.00080463 -0.020847 -0.018144 122 104 75
0.07268 -0.030213 -0.047325 136 100 61
0.026098 -0.023183 -0.030355 163 135 97
0.020331 -0.018743 -0.021041 171 149 114
0.021326 -0.017881 -0.025541 62 38 16
0.036767 -0.022932 -0.040703 136 111 85
0.035274 0.17314 0.78623 52 46 36
0.043978 -0.020049 -0.030621 72 51 31
0.0072198 -0.012714 -0.022574 146 124 94
0.007301 -0.013083 -0.0271 70 48 25
0.063053 -0.018214 -0.043094 110 77 45
0.058935 -0.017955 -0.044098 92 64 37
0.0072225 -0.0096218 -0.023638 140 114 75
0.067851 -0.012796 -0.047262 134 103 66
-0.027551 -0.018005 -0.073317 43 35 28
0.035512 -0.014013 -0.050077 210 179 144
0.03631 -0.013184 -0.054573 121 90 55
0.069698 -0.012083 -0.053491 135 100 61
0.033425 -0.0096025 -0.054025 159 121 74
0.029555 -0.0088189 -0.056617 182 147 93
0.067286 -0.005544 -0.053964 63 38 15
0.066928 -0.0037797 -0.049551 63 38 15
0.036304 0.0052735 -0.054405 68 47 22
0.036283 0.0064182 -0.055782 68 47 22
0.031663 0.0078733 -0.055178 74 47 15
0.031663 0.0078733 -0.055178 74 47 15
0.033277 0.010293 -0.054402 175 140 88
0.036445 0.015306 -0.055324 193 164 119
0.038562 0.018199 -0.055478 147 112 58
0.067294 0.025266 -0.051083 175 138 85
0.036883 0.026445 -0.053889 174 142 98
0.033817 0.029497 -0.055981 172 139 89
0.067563 0.033821 -0.052308 176 136 87
0.067588 0.040397 -0.052522 164 130 82
0.064365 0.042427 -0.054313 163 129 76
0.064869 0.044016 -0.05847 146 112 67
0.03668 0.049084 -0.055762 167 133 90
0.042781 0.050585 -0.062528 179 148 99
0.030812 0.056813 -0.055303 149 124 82
0.034627 0.060951 -0.053763 176 144 98
0.038445 0.061117 -0.053523 174 141 96
0.0072027 0.065448 -0.021126 105 84 55
0.0010065 0.067803 -0.019195 114 95 54
0.046675 0.068593 -0.055676 138 106 69
0.000917 0.073988 -0.02449 164 137 94
0.015136 0.072634 -0.052925 146 119 77
0.013074 0.073773 -0.05524 117 89 55
0.0156 0.076561 -0.055278 147 118 76
0.032845 0.076962 -0.054705 148 118 78
0.019545 0.076097 -0.05585 149 123 79
0.0015485 0.081217 -0.030142 129 107 70
0.0084948 0.082793 -0.028235 178 154 108
0.052083 0.083313 -0.056058 164 137 93
0.016722 0.084688 -0.056989 156 125 81
0.047542 0.0856 -0.055627 177 147 105
0.047542 0.0856 -0.055627 177 147 105
0.014563 0.089095 -0.055345 138 110 69
0.014563 0.089095 -0.055345 138 110 69
0.01709 0.089851 -0.055924 142 114 73
0.026285 0.094072 -0.055132 108 84 47
0.028007 0.094979 -0.055487 122 94 58
0.024739 0.095716 -0.054509 153 128 86
-5.5419e-05 0.10016 -0.025821 119 100 59
0.032981 0.10273 -0.056699 150 117 69
0.034819 0.1043 -0.055558 171 140 91
0.0051492 0.10622 -0.031261 173 145 92
0.038653 0.10918 -0.061173 170 145 111
0.030439 0.1113 -0.060534 177 149 109
0.087279 -0.030668 0.062393 44 37 34
0.0028394 -0.030439 0.033933 44 35 29
0.021572 -0.028579 -0.016821 158 134 92
0.041024 0.099312 0.37021 115 87 52
-0.023416 -0.018404 -0.044492 53 45 34
-0.04132 -0.03345 -0.056839 56 44 35
-0.015629 0.011769 0.16933 48 38 29
0.035771 0.087631 0.32198 143 115 78
0.054046 -0.025753 -0.031329 132 103 65
-0.057486 -0.038476 -0.094436 50 42 35
-0.057486 -0.038476 -0.094436 50 42 35
0.015391 -0.019648 -0.018433 145 124 87
0.039517 -0.023634 -0.032446 139 115 87
0.046133 -0.021528 -0.030787 140 113 72
-0.035529 -0.036608 -0.10273 62 54 46
0.0029967 -0.014355 -0.021096 141 118 83
0.00093923 -0.013073 -0.024109 55 39 23
0.0048951 -0.01129 -0.025762 123 101 65
0.013477 -0.012533 -0.045953 114 88 56
0.03029 -0.013264 -0.050975 195 167 129
0.06909 -0.013299 -0.047753 198 168 127
0.038887 -0.011226 -0.053569 128 98 67
0.065596 -0.011535 -0.054271 106 75 43
0.063445 0.050614 -0.025014 148 111 60
0.031498 -0.0013353 -0.055159 79 53 21
0.033557 0.0030235 -0.054979 156 123 72
0.041604 0.014298 -0.060692 174 137 84
0.038283 0.029694 -0.055433 72 46 23
0.06463 0.030154 -0.058231 151 116 69
0.074572 0.048733 -0.056872 182 147 98
0.032774 0.052692 -0.054937 121 96 57
0.068204 0.052608 -0.050834 85 58 30
0.0034228 0.061715 -0.023768 166 148 109
0.026485 0.059325 -0.054437 176 147 100
0.063673 0.060873 -0.052344 71 44 20
0.044854 0.067079 -0.054654 145 116 73
0.003768 0.069826 -0.024007 168 143 99
0.0034875 0.073733 -0.030626 145 119 78
0.048136 0.073581 -0.054692 162 131 88
0.048136 0.073581 -0.054692 162 131 88
0.023422 0.075785 -0.055769 154 125 80
0.0062275 0.083931 -0.033048 69 47 21
0.02366 0.084195 -0.055726 148 118 75
-0.0070958 0.086848 -0.032034 132 113 74
-0.000737 0.08597 -0.033695 141 120 80
0.028138 0.086258 -0.055286 172 147 105
0.0012245 0.091593 -0.029001 145 122 87
-0.0059065 0.091179 -0.028065 125 106 70
0.037155 0.091438 -0.053415 160 135 90
0.040063 0.090139 -0.055014 158 130 89
0.020158 0.096186 -0.057114 131 107 68
0.00026296 0.10186 -0.033587 180 159 110
0.017594 0.10381 -0.059973 161 131 84
0.01407 0.11171 -0.058647 152 126 83
0.038 0.098122 0.14666 127 103 61
-0.0063695 0.11793 -0.048929 160 134 92
-0.0031152 0.11847 -0.046546 164 141 100
0.0077973 -0.031425 0.040227 46 38 33
-0.0032712 -0.033172 0.030861 46 38 33
0.0056686 -0.032327 0.015873 54 44 40
0.0056686 -0.032327 0.015873 54 44 40
-0.001015 -0.032635 -0.022481 121 100 67
0.054929 -0.035919 -0.033668 167 137 96
0.054929 -0.035919 -0.033668 167 137 96
-0.044236 -0.034105 -0.052294 48 39 30
0.017115 -0.020226 -0.020056 99 77 45
-9.8381e-06 -0.022431 -0.02396 125 107 75
0.067395 -0.024506 -0.0468 111 77 45
-0.059388 -0.037831 -0.10483 45 40 32
0.046097 -0.015336 -0.030774 90 62 35
0.052982 -0.015353 -0.036027 134 102 63
0.049007 -0.014104 -0.033118 188 158 118
0.025868 -0.013148 -0.059025 209 177 133
-0.0050818 -0.0092484 -0.035163 79 59 34
0.044797 0.039647 0.18998 161 124 85
0.040798 0.0059912 -0.059567 177 142 90
0.029949 0.029948 -0.058502 165 132 84
-0.0007544 0.057081 -0.021124 156 139 95
-0.0021193 0.0025092 -0.98154 163 147 102
0.04785 0.062434 -0.055494 146 120 79
0.060665 0.073097 -0.058714 165 138 103
0.045073 0.076064 -0.0547 128 96 62
0.032092 0.082389 -0.054238 155 128 87
-0.0046558 0.087181 -0.032649 136 114 70
0.0019197 0.096765 -0.026416 162 145 100
0.029487 0.097641 -0.054756 163 138 94
0.025149 0.10388 -0.057678 176 146 95
0.025149 0.10388 -0.057678 176 146 95
0.035639 0.1036 0.10881 182 156 114
0.025144 0.10984 -0.062445 175 146 95
-0.001381 0.1127 -0.037817 153 129 79
0.0098537 0.11748 -0.04778 167 141 99
-0.006176 0.11793 -0.047594 160 134 92
-0.0033711 -0.033369 0.030246 46 38 33
0.014534 -0.030248 0.026381 48 41 37
0.028663 -0.035603 -0.031922 129 99 62
0.03712 0.013493 0.13898 72 52 32
-0.0040757 -0.02732 -0.023432 136 118 79
0.050112 -0.02479 -0.028825 157 128 88
-0.049984 -0.038975 -0.094131 45 39 31
0.009205 -0.012592 -0.027394 140 112 73
0.028738 0.0047169 -0.060329 99 61 19
0.040731 0.0057672 -0.060702 177 142 90
0.030085 0.044325 -0.059311 185 152 104
0.076245 0.058218 -0.057433 178 150 109
0.019214 0.062114 -0.057586 139 111 69
0.047932 0.062703 -0.053765 152 123 80
0.060057 0.068375 -0.055437 136 103 68
0.007801 0.091104 -0.0303 149 124 80
0.024094 0.098526 -0.055499 154 129 87
0.029515 0.097078 -0.05453 162 135 94
0.025126 0.10467 -0.058014 174 144 90
0.025054 0.10328 -0.058477 174 144 90
0.024947 0.11109 -0.061107 176 146 93
0.0016235 0.11925 -0.050298 156 131 81
0.042737 -0.028292 0.077865 46 39 34
0.062721 -0.033399 -0.04199 163 131 93
0.0060307 -0.022546 -0.019015 132 115 82
0.027548 -0.022726 -0.030766 153 127 90
0.036004 -0.02202 -0.032258 142 117 78
0.062457 -0.0038614 -0.058646 87 52 18
0.063518 0.042718 -0.061309 111 86 49
0.0045853 0.077951 -0.024758 48 37 25
0.037708 -0.034206 -0.029333 130 103 64
0.045292 -0.015518 -0.050033 157 132 95
0.064784 0.070447 -0.061616 150 118 77
0.064784 0.070447 -0.061616 150 118 77
0.033692 0.078874 -0.053773 147 115 76
-0.015004 0.11445 -0.051142 164 137 79
0.018532 -0.029477 -0.019839 147 128 87
0.073646 -0.030837 -0.046758 138 104 63
0.036299 0.08775 0.31277 121 102 81
0.061252 -0.020226 -0.04119 126 92 61
0.01635 -0.012393 -0.037426 201 174 131
0.052096 0.085131 -0.064772 177 148 106
0.02799 0.090964 -0.055559 137 107 70
0.036053 0.10577 -0.055449 162 130 84
0.036053 0.10577 -0.055449 162 130 84
0.0044573 0.036513 -0.049013 150 129 90
0.0044573 0.036513 -0.049013 150 129 90
0.068853 0.004545 -0.060132 122 91 53
0.035652 0.019477 -0.061766 135 110 71
0.035652 0.019477 -0.061766 135 110 71
0.035978 0.038273 -0.062099 161 124 82
0.035978 0.038273 -0.062099 161 124 82
0.068811 0.038256 -0.060778 160 124 80
0.068811 0.038256 -0.060778 160 124 80
0.034742 0.058796 -0.054171 175 143 99
0.0039255 0.066824 -0.024959 158 142 100
-0.052983 -0.02564 -0.059691 50 43 34
0.0023244 0.10716 -0.035829 165 140 92
0.0023244 0.10716 -0.035829 165 140 92
0.065203 -0.024022 -0.062532 117 86 51
0.0029124 0.10712 -0.031346 158 135 85
0.0029124 0.10712 -0.031346 158 135 85
0.016252 0.10391 0.080257 140 113 74
-0.0028234 -0.029499 -0.018613 64 48 22
0.03532 -0.032117 -0.035561 143 115 78
0.069814 -0.033804 -0.057476 126 94 57
-0.0018694 -0.023602 -0.017598 114 96 62
0.05865 -0.028366 -0.056697 139 107 64
0.035341 -0.020301 -0.035645 139 112 76
0.016262 -0.014917 -0.018694 152 126 85
0.036405 -0.018656 -0.04227 94 72 52
0.044467 -0.010997 -0.037342 187 154 115
0.0030465 -0.0077388 -0.021253 120 98 64
0.054417 -0.011337 -0.045199 158 128 86
0.0089333 -0.004556 -0.021661 106 81 45
0.074661 -0.014942 -0.078183 63 51 42
0.013216 -0.0087379 -0.063431 121 94 53
0.070453 -0.0049901 -0.065789 174 140 98
0.072966 -0.0053569 -0.071321 175 140 90
0.06489 -0.0032774 -0.06339 129 101 63
0.06489 -0.0032774 -0.06339 129 101 63
0.072883 -0.00055689 -0.071702 172 135 86
0.041828 0.0013653 -0.068038 139 109 78
0.041944 0.0087115 -0.068019 144 119 88
0.070493 0.0093619 -0.070111 141 107 69
0.039063 0.012291 -0.063059 104 75 46
0.072796 0.011292 -0.071684 172 138 92
0.008082 0.02273 -0.054804 159 130 85
0.066611 0.023345 -0.063714 150 117 75
0.066611 0.023345 -0.063714 150 117 75
0.068646 0.028077 -0.066725 171 136 88
0.064958 0.033116 -0.064524 105 75 32
0.0080881 0.045805 -0.01853 154 125 80
0.01011 0.055921 -0.0211 62 51 38
0.036474 0.051837 -0.057593 162 130 89
0.0098969 0.054366 -0.056358 76 55 26
0.038722 0.054964 -0.061634 121 96 68
0.074811 0.053975 -0.072727 142 112 70
0.010921 0.062159 -0.015692 151 128 87
0.038932 0.057382 -0.059266 64 44 17
0.04275 0.062253 -0.055253 167 140 101
0.011719 0.062506 -0.051341 98 73 44
0.011692 0.064992 -0.042235 131 109 71
0.016643 0.065214 -0.052231 145 120 81
0.055471 0.064263 -0.060514 142 112 73
0.028894 0.07402 -0.052676 139 109 72
0.06543 0.073117 -0.073703 150 119 84
0.01132 0.077853 -0.022854 107 85 52
0.055608 0.079762 -0.066038 156 130 95
-7.4939e-06 0.084035 -0.019402 84 64 38
0.050927 0.085363 -0.058898 167 143 97
0.012017 0.087693 -0.047328 142 119 84
0.046967 0.087714 -0.056776 170 141 99
0.046967 0.087714 -0.056776 170 141 99
0.01631 0.091422 -0.050379 132 104 66
0.017095 0.09773 -0.050135 107 83 46
0.040061 0.10034 -0.058344 108 83 48
0.018119 0.10468 -0.051963 138 109 67
0.018119 0.10468 -0.051963 138 109 67
0.01021 0.10649 -0.027327 188 156 95
0.005157 0.10779 -0.020481 160 136 84
0.029353 0.10721 -0.054633 132 103 58
0.021369 -0.03008 -0.020861 54 37 18
0.0715 -0.035626 -0.056597 146 114 76
0.021961 -0.024334 -0.0191 94 72 44
0.038297 -0.025212 -0.033706 143 117 78
0.028607 -0.024236 -0.031234 115 87 49
0.052324 -0.022512 -0.037679 144 115 78
0.070232 -0.02358 -0.057798 152 117 76
0.04908 -0.016656 -0.038364 132 98 57
0.069635 -0.021062 -0.05982 159 122 81
0.067938 -0.018872 -0.057413 144 107 68
0.049979 -0.013652 -0.041882 135 103 64
0.039601 -0.010445 -0.04275 197 165 126
0.042133 -0.010977 -0.046113 195 167 131
0.010453 -0.0054217 -0.027274 243 220 178
-0.063465 -0.033465 -0.1359 55 48 39
0.063408 -0.008838 -0.061702 137 105 65
0.071726 0.030222 0.092759 48 32 22
0.037559 0.0012972 -0.059017 146 110 63
0.0601 0.0086297 -0.066128 158 127 96
0.0072135 0.013413 -0.055364 135 104 58
0.038116 0.024043 -0.057986 162 125 74
0.010668 0.034094 -0.05958 151 115 56
0.010864 0.051495 -0.059283 147 116 69
0.073486 0.056246 -0.067391 96 76 51
0.043528 0.05722 -0.066263 124 97 54
-0.00088422 0.064674 -0.015354 102 85 53
0.013652 0.06223 -0.059142 96 74 40
0.011753 0.068101 -0.014638 105 81 45
0.060785 0.065006 -0.063288 164 130 88
-0.00051778 0.076237 -0.020969 165 137 88
0.063611 0.075238 -0.064014 172 145 117
-0.0022187 0.085647 -0.020954 96 76 44
0.0020969 0.086104 -0.020691 106 84 51
0.0414 0.083648 -0.056408 159 130 86
-0.0016646 0.093458 -0.019784 106 85 57
0.0097962 0.093422 -0.019564 153 128 82
0.039943 0.09219 -0.054966 161 134 91
-0.002972 0.10383 -0.02114 120 96 45
0.035363 0.1059 -0.055772 174 141 91
0.035363 0.1059 -0.055772 174 141 91
0.016232 0.10636 -0.051171 120 91 50
0.010954 0.1083 -0.030214 165 139 86
0.012551 0.1083 -0.036557 134 109 70
0.040767 0.10825 -0.064306 154 122 71
0.0028165 0.11431 -0.028738 160 133 88
-0.002032 0.11921 -0.037347 157 134 93
0.0015376 0.11971 -0.035168 161 137 102
-0.016173 -0.025358 -0.01742 122 105 69
0.027329 -0.025062 -0.033615 127 98 64
0.053874 -0.020658 -0.039931 115 86 56
0.035838 -0.014088 -0.042248 144 114 74
0.066082 -0.010978 -0.057754 164 130 91
0.066082 -0.010978 -0.057754 164 130 91
0.035017 -0.010093 -0.052357 222 194 158
0.0099998 0.0095312 -0.062553 173 138 91
0.066485 0.018955 -0.063836 73 48 29
0.066485 0.018955 -0.063836 73 48 29
0.030222 0.050368 -0.06139 133 103 61
0.067167 0.050117 -0.06635 144 113 76
0.0074537 0.052097 -0.051986 120 90 48
0.041915 0.058672 -0.056729 75 58 41
0.047152 0.064867 -0.057839 150 125 82
0.04325 0.065644 -0.057552 89 61 32
0.021772 0.069002 -0.051617 135 105 65
0.010501 0.098055 -0.019381 163 143 99
0.034988 0.1116 -0.058245 180 152 110
0.016169 0.11329 -0.054619 146 116 70
-0.0020597 0.11919 -0.037985 157 134 93
0.0056877 0.12104 -0.040502 161 137 93
0.0095271 -0.028533 -0.018294 120 101 63
0.047199 -0.031585 -0.037346 163 133 91
0.027872 -0.03138 -0.035897 127 102 65
-0.0015729 -0.023033 -0.017541 108 89 53
0.011475 -0.010903 -0.020286 95 70 43
-0.0014281 -0.0088105 -0.024407 163 146 112
0.012157 -0.0062754 -0.033382 242 219 183
0.061059 0.033426 -0.066484 155 123 78
0.061594 0.045158 -0.066318 138 105 65
0.065319 0.053737 -0.065991 101 75 42
0.0089088 0.060887 -0.014074 74 56 26
0.021378 0.097144 -0.050993 128 104 68
0.018749 0.10043 -0.049197 165 136 89
0.036609 -0.030801 -0.035544 132 104 67
0.06001 -0.031782 -0.055603 153 122 85
0.060886 0.016033 -0.066349 179 145 100
0.018355 0.08552 -0.050589 146 115 68
5.5536e-05 0.099832 -0.017574 143 124 75
0.01247 0.11812 -0.038588 167 140 90
0.061711 -0.025046 0.09076 61 55 50
-0.0036817 -0.026616 -0.017338 115 93 60
0.039395 -0.017572 -0.045127 105 79 54
0.0075441 0.080593 -0.018739 87 71 41
-0.010257 0.1165 -0.037177 161 134 79
0.0049768 0.0071515 -0.024278 128 108 75
0.0082723 0.0059978 -0.059059 176 145 97
0.0097569 0.047956 -0.054184 163 127 71
0.032984 0.063066 -0.051863 164 132 88
0.052716 0.069534 -0.058848 159 128 84
0.014281 0.077414 -0.035985 106 81 47
0.015469 0.094993 -0.036165 107 82 54
0.03468 0.105 -0.056262 172 140 90
0.0059204 0.10909 -0.028667 180 150 94
0.0059204 0.10909 -0.028667 180 150 94
0.021233 -0.0099481 -0.023164 133 105 68
0.021233 -0.0099481 -0.023164 133 105 68
0 0 0 1 0 0 0 1 0 0 0 1 0 0 0 0 0 406 1 0 0
