ply
format ascii 1.0
comment PCL generated
element vertex 1386
property float x
property float y
property float z
property uchar red
property uchar green
property uchar blue
element camera 0
property float view_px
property float view_py
property float view_pz
property float x_axisx
property float x_axisy
property float x_axisz
property float y_axisx
property float y_axisy
property float y_axisz
property float z_axisx
property float z_axisy
property float z_axisz
property float focal
property float scalex
property float scaley
property float centerx
property float centery
property int viewportx
property int viewporty
property float k1
property float k2
end_header
0.10033 -0.027022 -0.1001 0 0 0
0.097078 -0.019144 -0.094247 0 0 0
0.097306 -0.014562 -0.088453 0 0 0
0.096134 -0.020951 -0.097496 0 0 0
0.096377 -0.013469 -0.088185 0 0 0
0.093275 -0.025294 -0.10597 0 0 0
0.095211 -0.012549 -0.088389 0 0 0
0.094707 -0.012333 -0.088698 0 0 0
0.092108 -0.013228 -0.092714 0 0 0
0.082116 -0.03077 -0.1252 0 0 0
0.088093 -0.0097673 -0.093066 0 0 0
0.087264 -0.010064 -0.094363 0 0 0
0.091675 -0.00029176 -0.077553 0 0 0
0.093156 -0.00037792 -0.076011 0 0 0
0.090316 0.0028662 -0.075303 0 0 0
0.086235 0.0030214 -0.079716 0 0 0
0.080304 0.0033071 -0.086069 0 0 0
0.07893 0.005844 -0.084556 0 0 0
0.07818 0.0090286 -0.081554 0 0 0
0.075422 0.012386 -0.080611 0 0 0
0.078297 0.019535 -0.068715 0 0 0
0.073524 0.026508 -0.065686 0 0 0
0.072994 0.027612 -0.064954 0 0 0
0.067688 0.035579 -0.061316 0 0 0
0.069617 0.034219 -0.060773 0 0 0
0.064134 0.040341 -0.059582 0 0 0
0.067893 0.037077 -0.059258 0 0 0
0.063608 0.042597 -0.057454 0 0 0
0.054164 0.052325 -0.056353 0 0 0
0.051718 0.054714 -0.05622 0 0 0
0.062043 0.044619 -0.056734 0 0 0
0.062043 0.044619 -0.056734 0 0 0
0.033171 0.078355 -0.048566 0 0 0
-0.037451 -0.10535 -0.34371 0 0 0
0.051196 0.064936 -0.044478 0 0 0
0.098033 -0.027802 -0.1036 0 0 0
0.097082 -0.010611 -0.083936 0 0 0
0.096468 -0.0078739 -0.08132 0 0 0
0.094026 -0.020325 -0.099122 0 0 0
0.095046 -0.013209 -0.089371 0 0 0
0.095541 -0.011849 -0.087173 0 0 0
0.08613 -0.05065 -0.1447 0 0 0
0.092249 -0.014276 -0.093821 0 0 0
-0.019597 -0.11166 -0.33303 0 0 0
0.094134 -0.004498 -0.079868 0 0 0
0.09175 -0.0099435 -0.089147 0 0 0
0.089181 -0.011147 -0.093505 0 0 0
0.088586 -0.0089193 -0.091489 0 0 0
0.092024 0.0018039 -0.074669 0 0 0
0.079193 0.018202 -0.069315 0 0 0
0.066913 0.030795 -0.067978 0 0 0
0.07628 0.023423 -0.066302 0 0 0
0.06363 0.039826 -0.06077 0 0 0
0.057688 0.046511 -0.059407 0 0 0
0.058073 0.047613 -0.05764 0 0 0
0.064663 0.04245 -0.056418 0 0 0
0.064663 0.04245 -0.056418 0 0 0
0.042017 0.069232 -0.04962 0 0 0
0.033197 0.081021 -0.045319 0 0 0
0.061131 0.050881 -0.050255 0 0 0
0.096646 -0.029422 -0.10715 0 0 0
0.096993 -0.020959 -0.096537 0 0 0
0.089107 -0.063911 -0.15734 0 0 0
0.095572 -0.011121 -0.086258 0 0 0
0.093969 -0.0085142 -0.084918 0 0 0
0.090991 -0.008799 -0.088624 0 0 0
0.09022 -0.0077615 -0.088243 0 0 0
0.091363 -0.0019938 -0.079966 0 0 0
0.069406 0.031309 -0.064545 0 0 0
0.064273 0.036294 -0.064323 0 0 0
0.070493 0.030951 -0.063738 0 0 0
0.065457 0.037949 -0.060976 0 0 0
0.065457 0.037949 -0.060976 0 0 0
0.065677 0.03886 -0.059627 0 0 0
0.069531 0.034944 -0.059986 0 0 0
0.064634 0.044146 -0.054432 0 0 0
0.066103 0.042137 -0.055164 0 0 0
0.061232 0.050443 -0.050644 0 0 0
0.096924 -0.020581 -0.096158 0 0 0
0.096934 -0.0079475 -0.080882 0 0 0
0.077666 -0.076304 -0.18527 0 0 0
0.045996 0.063621 -0.051898 0 0 0
0.063637 0.046837 -0.052288 0 0 0
0.094338 -0.012209 -0.088966 0 0 0
0.061497 0.042402 -0.060067 0 0 0
0.1133 -0.0010318 -0.05442 0 0 0
0.096707 -0.017932 -0.093201 0 0 0
0.07146 0.032311 -0.060992 0 0 0
0.074102 0.027254 -0.064123 0 0 0
0.060902 0.043938 -0.058877 0 0 0
0.067894 0.037082 -0.059257 0 0 0
0.062798 0.046382 -0.053771 0 0 0
0.020395 0.093696 -0.044644 0 0 0
0.10704 -0.098287 -0.17866 0 0 0
0.09701 -0.014911 -0.089208 0 0 0
0.09655 -0.042593 -0.12318 0 0 0
0.096579 -0.012476 -0.086751 0 0 0
0.09565 -0.024374 -0.10218 0 0 0
0.095252 -0.01119 -0.086696 0 0 0
0.094073 -0.016374 -0.094294 0 0 0
0.093447 -0.0029264 -0.078743 0 0 0
0.091785 -0.012284 -0.091934 0 0 0
0.089454 -0.007811 -0.089162 0 0 0
0.090554 -0.004677 -0.084131 0 0 0
0.090564 -0.0046408 -0.084076 0 0 0
0.090811 -0.0037128 -0.082675 0 0 0
0.088789 -0.0072721 -0.089262 0 0 0
0.082751 -0.00063381 -0.088061 0 0 0
0.077732 0.0089935 -0.082096 0 0 0
0.073499 0.016641 -0.077637 0 0 0
0.075271 0.025458 -0.064971 0 0 0
0.07138 0.028961 -0.065136 0 0 0
0.073623 0.027372 -0.064521 0 0 0
0.055534 0.047689 -0.060413 0 0 0
0.06608 0.03713 -0.061254 0 0 0
0.066895 0.03828 -0.058934 0 0 0
0.064707 0.040926 -0.058206 0 0 0
0.061942 0.044625 -0.056866 0 0 0
0.055357 0.052168 -0.055196 0 0 0
0.030715 0.081397 -0.04769 0 0 0
0.065454 0.04255 -0.05541 0 0 0
0.037846 0.074198 -0.048339 0 0 0
0.025763 0.088993 -0.044092 0 0 0
0.029464 0.084958 -0.044789 0 0 0
0.043374 0.069031 -0.048331 0 0 0
0.045554 0.06686 -0.048493 0 0 0
0.062712 0.047427 -0.05261 0 0 0
0.048473 0.064168 -0.048455 0 0 0
0.048473 0.064168 -0.048455 0 0 0
0.051285 0.061243 -0.048814 0 0 0
0.030696 0.085663 -0.042544 0 0 0
0.05303 0.05962 -0.048807 0 0 0
0.045315 0.072496 -0.041966 0 0 0
0.10301 -0.052786 -0.1282 0 0 0
0.096064 -0.021185 -0.097857 0 0 0
0.094004 -0.029822 -0.11062 0 0 0
0.095261 -0.0085942 -0.083548 0 0 0
0.093164 -0.025265 -0.10607 0 0 0
0.086447 -0.046724 -0.13961 0 0 0
0.090312 -0.018061 -0.10058 0 0 0
0.089948 -0.0058519 -0.086236 0 0 0
-0.035584 -0.024102 -0.1349 0 0 0
0.075986 0.024075 -0.065836 0 0 0
0.1634 -0.056307 -0.06541 0 0 0
0.058803 0.044393 -0.060706 0 0 0
0.052738 0.055445 -0.05417 0 0 0
0.05491 0.053218 -0.054412 0 0 0
0.06109 0.047032 -0.054919 0 0 0
0.029612 0.083904 -0.045895 0 0 0
0.085363 0.0040981 -0.079305 0 0 0
0.096928 -0.0096283 -0.082917 0 0 0
0.096912 -0.0090713 -0.082262 0 0 0
0.096491 -0.013841 -0.0885 0 0 0
0.096009 -0.0079623 -0.08194 0 0 0
0.092794 -0.019703 -0.099762 0 0 0
0.069195 -0.17945 -0.31951 0 0 0
0.090738 0.00013308 -0.0781 0 0 0
0.071813 0.027903 -0.065927 0 0 0
0.05255 0.051637 -0.059013 0 0 0
0.065845 0.040142 -0.057867 0 0 0
0.043368 0.066285 -0.051666 0 0 0
0.050283 0.059183 -0.052432 0 0 0
0.050096 0.059646 -0.052091 0 0 0
0.064567 0.043774 -0.054933 0 0 0
0.052957 0.058936 -0.049715 0 0 0
0.052957 0.058936 -0.049715 0 0 0
0.05081 0.062553 -0.047767 0 0 0
0.083316 -0.09186 -0.19769 0 0 0
0.0916 -0.0094885 -0.088765 0 0 0
0.0916 -0.0094885 -0.088765 0 0 0
0.090873 -0.0075226 -0.087211 0 0 0
0.089338 -0.0039601 -0.084639 0 0 0
0.06597 0.041662 -0.055906 0 0 0
0.023006 0.090281 -0.045664 0 0 0
0.021902 0.094596 -0.041683 0 0 0
-0.42645 1.1791 0.76709 0 0 0
0.09459 -0.014006 -0.090847 0 0 0
0.094292 -0.0032605 -0.078194 0 0 0
0.09159 -0.0010599 -0.078581 0 0 0
0.065981 0.042165 -0.055283 0 0 0
0.10214 -0.065783 -0.14489 0 0 0
0.093665 -0.091646 -0.18572 0 0 0
0.096331 -0.019527 -0.095553 0 0 0
0.049862 0.054949 -0.058055 0 0 0
0.024758 0.090495 -0.043415 0 0 0
0.095922 -0.024472 -0.10199 0 0 0
0.078072 0.02095 -0.06726 0 0 0
0.095886 -0.0079548 -0.08207 0 0 0
0.060542 0.037538 -0.067023 0 0 0
0.057836 0.074444 -0.02533 0 0 0
0.073524 0.023079 -0.069855 0 0 0
0.073044 0.027727 -0.064745 0 0 0
0.063577 0.040463 -0.060048 0 0 0
0.095866 -0.013022 -0.088217 0 0 0
0.095266 -0.034688 -0.11508 0 0 0
0.095335 -0.011631 -0.087135 0 0 0
0.095335 -0.011631 -0.087135 0 0 0
0.094851 -0.020765 -0.09872 0 0 0
0.093963 -0.019257 -0.097901 0 0 0
0.093064 -0.026657 -0.10786 0 0 0
0.092676 -0.022305 -0.10304 0 0 0
0.093815 -0.0067157 -0.08291 0 0 0
0.09299 -0.018018 -0.097504 0 0 0
0.093345 -0.003192 -0.079183 0 0 0
0.091292 -0.014867 -0.095614 0 0 0
0.091292 -0.014867 -0.095614 0 0 0
-0.02692 -0.073791 -0.30024 0 0 0
0.088697 -0.011955 -0.095026 0 0 0
0.090177 0.0027065 -0.075626 0 0 0
0.08701 -0.0030591 -0.08618 0 0 0
0.080204 0.0040308 -0.085301 0 0 0
0.082777 0.011023 -0.07394 0 0 0
0.08138 0.012727 -0.073458 0 0 0
0.079852 0.016926 -0.070107 0 0 0
0.076818 0.021096 -0.068494 0 0 0
0.075545 0.023472 -0.067061 0 0 0
0.064926 0.041342 -0.057464 0 0 0
0.063481 0.04304 -0.057045 0 0 0
0.040382 0.069215 -0.051498 0 0 0
0.053194 0.055297 -0.053845 0 0 0
0.053194 0.055297 -0.053845 0 0 0
0.05843 0.049999 -0.054332 0 0 0
0.029891 0.083368 -0.046239 0 0 0
0.054182 0.056354 -0.051454 0 0 0
0.050617 0.0621 -0.048535 0 0 0
0.099762 -0.041265 -0.11795 0 0 0
0.097401 -0.020928 -0.096038 0 0 0
0.095581 -0.029358 -0.10828 0 0 0
0.095682 -0.0054006 -0.079215 0 0 0
0.094905 -0.01112 -0.087004 0 0 0
0.094137 -0.011359 -0.088159 0 0 0
0.090638 -0.022906 -0.10607 0 0 0
0.091818 -0.013556 -0.093435 0 0 0
0.092231 -0.011119 -0.090024 0 0 0
0.092548 -0.0066835 -0.084304 0 0 0
0.088341 -0.0076309 -0.090202 0 0 0
0.089228 0.0024701 -0.076981 0 0 0
0.083937 -0.0054462 -0.092537 0 0 0
0.074715 0.014664 -0.078651 0 0 0
0.069148 0.020743 -0.077598 0 0 0
0.076769 0.01983 -0.070084 0 0 0
0.065515 0.030584 -0.069805 0 0 0
0.075512 0.024329 -0.066063 0 0 0
0.055736 0.043463 -0.065283 0 0 0
0.070279 0.033501 -0.060892 0 0 0
0.0467 0.05781 -0.058159 0 0 0
0.059487 0.045105 -0.059066 0 0 0
0.043525 0.066128 -0.051677 0 0 0
0.061101 0.047994 -0.053746 0 0 0
0.047665 0.06632 -0.046761 0 0 0
0.1007 -0.079666 -0.16327 0 0 0
0.092679 -0.0062958 -0.083688 0 0 0
0.088398 -0.0055118 -0.087576 0 0 0
0.022544 0.15171 0.028571 0 0 0
0.078007 0.0045838 -0.087115 0 0 0
-0.0347 -0.11299 -0.35451 0 0 0
0.064937 0.029636 -0.071606 0 0 0
0.067169 0.030454 -0.068095 0 0 0
0.069505 0.031098 -0.064674 0 0 0
0.071776 0.03131 -0.061848 0 0 0
0.04714 0.059707 -0.055356 0 0 0
0.044831 0.065672 -0.050751 0 0 0
0.025509 0.08862 -0.044837 0 0 0
0.061066 0.048458 -0.053223 0 0 0
0.0465 0.065365 -0.049237 0 0 0
0.062936 0.046759 -0.05317 0 0 0
0.058364 0.052126 -0.051842 0 0 0
0.057155 0.055082 -0.049636 0 0 0
0.10542 -0.066434 -0.14196 0 0 0
0.094534 -0.0025303 -0.07704 0 0 0
0.093712 -0.011301 -0.088569 0 0 0
0.092609 -0.010137 -0.088408 0 0 0
0.071642 0.015852 -0.080691 0 0 0
0.068482 0.021928 -0.076911 0 0 0
0.043018 0.0646 -0.054097 0 0 0
0.06001 0.04775 -0.055268 0 0 0
0.060005 0.047741 -0.055285 0 0 0
0.045115 0.065263 -0.050924 0 0 0
0.10513 -0.035163 -0.10452 0 0 0
0.096591 -0.020879 -0.096893 0 0 0
0.095662 -0.045232 -0.12737 0 0 0
0.089475 -0.0080461 -0.089421 0 0 0
0.053088 0.058431 -0.050177 0 0 0
0.093738 -0.0015709 -0.07678 0 0 0
0.076903 0.022257 -0.066997 0 0 0
0.087636 -0.0068804 -0.090092 0 0 0
0.084167 -0.0084574 -0.095914 0 0 0
0.12656 -0.045419 -0.057026 0 0 0
0.03992 0.067773 -0.053763 0 0 0
0.051866 0.060668 -0.048856 0 0 0
0.094898 -0.03071 -0.11069 0 0 0
0.064541 0.039437 -0.060199 0 0 0
0.095815 -0.025367 -0.10319 0 0 0
0.095082 -0.011078 -0.086753 0 0 0
0.09456 -0.027701 -0.10743 0 0 0
0.094749 -0.012067 -0.088324 0 0 0
0.094358 -0.015656 -0.093103 0 0 0
0.094148 -0.016613 -0.094497 0 0 0
0.093665 -0.015836 -0.094104 0 0 0
0.093454 -0.016908 -0.095638 0 0 0
0.091605 -0.024912 -0.1074 0 0 0
0.091605 -0.024912 -0.1074 0 0 0
0.092135 -0.012448 -0.091738 0 0 0
0.091624 -0.01207 -0.091858 0 0 0
0.090718 -0.0042413 -0.08342 0 0 0
0.090875 -0.0038121 -0.082723 0 0 0
0.090316 -0.0052051 -0.085039 0 0 0
0.089608 -0.0056354 -0.086359 0 0 0
0.088141 -0.0092362 -0.092369 0 0 0
0.079591 0.0067295 -0.082731 0 0 0
0.082598 0.010155 -0.07519 0 0 0
0.084011 0.0098406 -0.073976 0 0 0
0.075724 0.012928 -0.079607 0 0 0
0.082723 0.012289 -0.072472 0 0 0
0.078925 0.018778 -0.06892 0 0 0
0.075105 0.024202 -0.066684 0 0 0
0.073287 0.026892 -0.065481 0 0 0
0.057063 0.043032 -0.064302 0 0 0
0.050668 0.052806 -0.059714 0 0 0
0.065486 0.038475 -0.060303 0 0 0
0.055369 0.050642 -0.05702 0 0 0
0.068241 0.03684 -0.059158 0 0 0
0.063552 0.043631 -0.056246 0 0 0
0.058045 0.049953 -0.054825 0 0 0
0.025489 0.087914 -0.045717 0 0 0
0.064194 0.044265 -0.054754 0 0 0
0.044053 0.069023 -0.047581 0 0 0
0.044053 0.069023 -0.047581 0 0 0
0.057035 0.053944 -0.051144 0 0 0
0.062422 0.047568 -0.052766 0 0 0
0.059784 0.050697 -0.051962 0 0 0
0.059542 0.051315 -0.05149 0 0 0
0.052063 0.06063 -0.048677 0 0 0
0.055279 0.057537 -0.048786 0 0 0
0.047569 0.067065 -0.045976 0 0 0
0.046247 0.071258 -0.042407 0 0 0
0.096441 -0.0080007 -0.081498 0 0 0
0.094925 -0.0075423 -0.082656 0 0 0
0.093846 -0.020954 -0.10008 0 0 0
0.092872 -0.012506 -0.090976 0 0 0
0.090598 -0.017889 -0.10005 0 0 0
0.084815 -0.075321 -0.17601 0 0 0
0.089297 -0.010444 -0.092522 0 0 0
0.090121 -0.0067357 -0.087109 0 0 0
0.08735 -0.0050103 -0.088154 0 0 0
0.066738 0.031894 -0.066838 0 0 0
0.075524 0.02537 -0.064792 0 0 0
0.07473 0.026701 -0.064079 0 0 0
0.04339 0.066449 -0.051442 0 0 0
0.027048 0.087428 -0.04454 0 0 0
0.0217 0.094458 -0.042085 0 0 0
0.061073 0.049124 -0.052407 0 0 0
0.10048 -0.053796 -0.13229 0 0 0
0.096769 -0.01417 -0.088584 0 0 0
0.099755 -0.069778 -0.15242 0 0 0
0.096477 -0.014242 -0.089 0 0 0
0.096914 -0.032555 -0.11064 0 0 0
0.093237 -0.0073151 -0.084289 0 0 0
0.092761 -0.0089579 -0.086813 0 0 0
0.091897 -0.0078275 -0.086422 0 0 0
0.091911 -0.0078811 -0.086471 0 0 0
0.091146 0.0015905 -0.075883 0 0 0
0.090793 -0.0076999 -0.087515 0 0 0
0.090622 0.002562 -0.0753 0 0 0
0.087589 -0.014173 -0.098958 0 0 0
0.078866 0.0093992 -0.080323 0 0 0
0.061375 0.040894 -0.062017 0 0 0
0.067509 0.035284 -0.06187 0 0 0
0.050184 0.054723 -0.057941 0 0 0
0.069815 0.034706 -0.059957 0 0 0
0.05207 0.056643 -0.053487 0 0 0
0.063279 0.044448 -0.055567 0 0 0
0.049606 0.060103 -0.052087 0 0 0
0.064379 0.043595 -0.055355 0 0 0
0.040758 0.071372 -0.048465 0 0 0
0.046232 0.06581 -0.049005 0 0 0
0.10176 -0.061545 -0.1402 0 0 0
0.097692 -0.021768 -0.096725 0 0 0
0.092239 -0.033277 -0.11679 0 0 0
0.093002 -0.019959 -0.099836 0 0 0
0.093133 -0.0083356 -0.08564 0 0 0
0.08676 -0.027048 -0.11546 0 0 0
0.091076 -0.007157 -0.08654 0 0 0
0.087299 -0.016638 -0.10226 0 0 0
0.06567 0.042044 -0.055773 0 0 0
0.018256 0.099599 -0.039763 0 0 0
0.052377 0.061303 -0.047512 0 0 0
0.096423 -0.024248 -0.10116 0 0 0
0.095902 -0.046343 -0.12845 0 0 0
0.092496 -0.0054779 -0.082905 0 0 0
0.067245 0.033523 -0.064296 0 0 0
0.065432 0.041686 -0.056474 0 0 0
0.053004 0.05663 -0.052449 0 0 0
0.087858 -0.0064464 -0.089316 0 0 0
0.052317 0.05213 -0.058666 0 0 0
0.049995 0.065985 -0.044548 0 0 0
0.1094 -0.10493 -0.18402 0 0 0
0.090564 0.0025401 -0.075393 0 0 0
0.068996 0.027835 -0.069196 0 0 0
0.061239 0.036859 -0.067053 0 0 0
0.021842 0.094735 -0.041591 0 0 0
0.095088 -0.0072748 -0.082148 0 0 0
0.073929 0.027669 -0.063815 0 0 0
0.094471 -0.032983 -0.11392 0 0 0
0.077994 0.021182 -0.067063 0 0 0
0.074675 0.026147 -0.064824 0 0 0
0.07098 0.034013 -0.059477 0 0 0
0.094276 -0.0272 -0.10715 0 0 0
0.09206 -0.011173 -0.090281 0 0 0
0.092124 -0.011325 -0.090394 0 0 0
0.09206 -0.011173 -0.090281 0 0 0
0.10056 -0.03568 -0.1103 0 0 0
0.096368 -0.022668 -0.099307 0 0 0
0.096368 -0.022668 -0.099307 0 0 0
0.095975 -0.022792 -0.099902 0 0 0
0.095647 -0.030903 -0.11007 0 0 0
0.095412 -0.037277 -0.11804 0 0 0
0.095189 -0.024534 -0.10289 0 0 0
0.091629 -0.014899 -0.095271 0 0 0
0.085834 -0.017415 -0.10486 0 0 0
0.090994 -0.0035138 -0.082229 0 0 0
0.092438 0.00043606 -0.075824 0 0 0
0.08326 0.00026839 -0.086394 0 0 0
0.085246 0.0028905 -0.080982 0 0 0
0.080837 0.0048666 -0.083573 0 0 0
0.080319 0.0048903 -0.084131 0 0 0
0.078965 0.007318 -0.082726 0 0 0
0.075767 0.015028 -0.07702 0 0 0
0.072778 0.016157 -0.079032 0 0 0
0.077153 0.017342 -0.072657 0 0 0
0.075598 0.025295 -0.064802 0 0 0
0.07212 0.028348 -0.065043 0 0 0
0.063757 0.037874 -0.062973 0 0 0
0.072798 0.03024 -0.061989 0 0 0
0.067643 0.03568 -0.061235 0 0 0
0.065275 0.038725 -0.06023 0 0 0
0.069821 0.034149 -0.060627 0 0 0
0.064926 0.041286 -0.057528 0 0 0
0.057935 0.049154 -0.055916 0 0 0
0.060363 0.047586 -0.055066 0 0 0
0.04463 0.066845 -0.049562 0 0 0
0.0658 0.042486 -0.055092 0 0 0
0.02847 0.086532 -0.044022 0 0 0
0.040926 0.072274 -0.047184 0 0 0
0.023033 0.094088 -0.041031 0 0 0
0.049687 0.063149 -0.048318 0 0 0
0.051597 0.061172 -0.04855 0 0 0
0.095482 -0.0062024 -0.080408 0 0 0
0.094782 -0.012944 -0.089347 0 0 0
0.093908 -0.0013119 -0.076275 0 0 0
0.091945 -0.034484 -0.11858 0 0 0
0.093347 -0.010912 -0.088512 0 0 0
0.083792 -0.073083 -0.17445 0 0 0
0.091416 -0.0080412 -0.087224 0 0 0
0.092053 -0.0037188 -0.08128 0 0 0
0.091517 -0.005963 -0.084598 0 0 0
0.088553 -0.0064531 -0.088538 0 0 0
0.090126 6.8318e-05 -0.078881 0 0 0
0.082932 0.001656 -0.085087 0 0 0
0.081718 0.014556 -0.070868 0 0 0
0.064228 0.032283 -0.0692 0 0 0
0.070149 0.030517 -0.064648 0 0 0
0.075228 0.026783 -0.063421 0 0 0
0.074246 0.02871 -0.0622 0 0 0
0.058233 0.046119 -0.059248 0 0 0
0.059503 0.046441 -0.057422 0 0 0
0.065066 0.040783 -0.057979 0 0 0
0.053951 0.052974 -0.0558 0 0 0
0.066878 0.040417 -0.056374 0 0 0
0.070248 0.032247 -0.062394 0 0 0
0.067621 0.036075 -0.060735 0 0 0
0.092415 0.00085924 -0.075338 0 0 0
0.088667 -0.020623 -0.10553 0 0 0
0.091113 -0.0029452 -0.081407 0 0 0
0.087261 -0.0093526 -0.093503 0 0 0
0.071689 0.019254 -0.076519 0 0 0
0.076966 0.016895 -0.073409 0 0 0
0.075809 0.024179 -0.065912 0 0 0
0.076552 0.023611 -0.065761 0 0 0
0.074235 0.028153 -0.062888 0 0 0
0.074235 0.028153 -0.062888 0 0 0
0.070572 0.033239 -0.060879 0 0 0
0.068414 0.037482 -0.058185 0 0 0
0.065744 0.042136 -0.055578 0 0 0
0.063013 0.046046 -0.053936 0 0 0
0.028769 0.08691 -0.043228 0 0 0
0.050521 0.061479 -0.049394 0 0 0
0.050521 0.061479 -0.049394 0 0 0
0.064856 0.044418 -0.053822 0 0 0
0.093858 -0.0028437 -0.078184 0 0 0
0.093696 -0.0014622 -0.076696 0 0 0
0.071903 0.017216 -0.07874 0 0 0
0.046705 0.061354 -0.053856 0 0 0
0.060028 0.047569 -0.055465 0 0 0
0.021308 0.092635 -0.044736 0 0 0
0.043603 0.068347 -0.048908 0 0 0
0.05656 0.055473 -0.049833 0 0 0
0.098494 -0.034299 -0.11096 0 0 0
0.096449 -0.034711 -0.11377 0 0 0
0.094545 -0.0043581 -0.079237 0 0 0
0.091515 -0.000856 -0.078427 0 0 0
0.089962 -0.0080658 -0.088896 0 0 0
0.065306 0.041874 -0.05639 0 0 0
0.096821 -0.016885 -0.091807 0 0 0
0.094123 -0.0068477 -0.082724 0 0 0
0.03974 0.076531 -0.04338 0 0 0
0.082253 -0.044221 -0.1413 0 0 0
0.10304 -0.030726 -0.10151 0 0 0
0.096668 -0.015438 -0.090232 0 0 0
0.095058 -0.0090925 -0.084381 0 0 0
0.094781 -0.0094265 -0.085097 0 0 0
0.094439 -0.021829 -0.10047 0 0 0
0.094414 -0.0076988 -0.083424 0 0 0
0.093101 -0.0051321 -0.081804 0 0 0
0.092562 -0.0046123 -0.081785 0 0 0
0.092759 -0.0040416 -0.080873 0 0 0
0.08912 -0.018631 -0.10262 0 0 0
0.090407 -0.012314 -0.093526 0 0 0
0.089097 -0.0030988 -0.08387 0 0 0
0.086797 -0.0049412 -0.088694 0 0 0
0.077808 0.011513 -0.078962 0 0 0
0.082619 0.012212 -0.072682 0 0 0
0.076556 0.013607 -0.077846 0 0 0
0.070957 0.025475 -0.069826 0 0 0
0.073267 0.028005 -0.064159 0 0 0
0.074217 0.028202 -0.062848 0 0 0
0.063667 0.042203 -0.057843 0 0 0
0.068669 0.036829 -0.058687 0 0 0
0.06439 0.04203 -0.057234 0 0 0
0.062842 0.044602 -0.055874 0 0 0
0.059615 0.048299 -0.055052 0 0 0
0.065286 0.043042 -0.055 0 0 0
0.054612 0.055677 -0.051786 0 0 0
0.040727 0.072494 -0.047145 0 0 0
0.061811 0.047993 -0.052941 0 0 0
0.060882 0.049611 -0.052034 0 0 0
0.042532 0.073619 -0.043745 0 0 0
0.10358 -0.050205 -0.12444 0 0 0
0.096267 -0.0046624 -0.077661 0 0 0
0.095856 -0.0047804 -0.078268 0 0 0
0.096398 -0.011831 -0.086177 0 0 0
0.095221 -0.0117 -0.087348 0 0 0
0.088961 -0.59429 -0.7985 0 0 0
0.093423 -0.029124 -0.11044 0 0 0
0.091347 -0.036101 -0.12121 0 0 0
0.092639 -0.0081578 -0.085983 0 0 0
0.092667 -0.0060239 -0.083372 0 0 0
0.091865 -0.0097413 -0.088771 0 0 0
0.088307 -0.021441 -0.10693 0 0 0
0.091476 -0.0021588 -0.080046 0 0 0
0.091476 -0.0021588 -0.080046 0 0 0
0.088898 -0.0013246 -0.08195 0 0 0
0.060021 0.03757 -0.067561 0 0 0
0.066125 0.033324 -0.065798 0 0 0
0.058602 0.047327 -0.057371 0 0 0
0.029318 0.083723 -0.04646 0 0 0
0.05438 0.058252 -0.048935 0 0 0
0.062514 0.048273 -0.051808 0 0 0
0.045413 0.069431 -0.045553 0 0 0
0.095968 -0.0060911 -0.079725 0 0 0
0.096248 -0.012739 -0.087444 0 0 0
0.095113 -0.0025998 -0.076472 0 0 0
0.095344 -0.0086234 -0.083491 0 0 0
0.093887 -0.00027603 -0.075048 0 0 0
0.093862 0.00010034 -0.074621 0 0 0
0.09352 0.00029051 -0.074778 0 0 0
0.090294 -0.0056892 -0.085648 0 0 0
0.088036 -0.0068276 -0.089575 0 0 0
0.085955 -0.0089323 -0.094468 0 0 0
0.05931 0.044329 -0.060195 0 0 0
0.047933 0.062286 -0.051342 0 0 0
0.043766 0.067153 -0.050167 0 0 0
0.058473 0.051622 -0.052326 0 0 0
0.098167 -0.011023 -0.083203 0 0 0
0.090617 -0.0053649 -0.084891 0 0 0
0.055764 0.044488 -0.064009 0 0 0
0.059096 0.048897 -0.054915 0 0 0
0.050515 0.063054 -0.047498 0 0 0
0.095369 -0.048002 -0.13105 0 0 0
0.09393 -0.01098 -0.087937 0 0 0
0.092457 -0.017619 -0.097622 0 0 0
0.091742 -0.0037616 -0.081683 0 0 0
0.070711 0.022155 -0.074117 0 0 0
0.034445 0.080388 -0.0447 0 0 0
0.096653 -0.0092098 -0.082721 0 0 0
0.094699 -0.0015827 -0.07571 0 0 0
0.083565 3.5864e-05 -0.086329 0 0 0
0.062215 0.041839 -0.059923 0 0 0
0.09327 -0.0058082 -0.082431 0 0 0
0.060117 0.046088 -0.057158 0 0 0
0.056248 0.055156 -0.050567 0 0 0
0.061542 0.037797 -0.065569 0 0 0
0.067038 0.038295 -0.058759 0 0 0
0.059351 0.049857 -0.053467 0 0 0
0.097497 -0.0096591 -0.082311 0 0 0
0.09459 -0.035782 -0.11717 0 0 0
0.063053 0.046253 -0.053641 0 0 0
0.097834 -0.015614 -0.089127 0 0 0
0.097867 -0.016209 -0.089808 0 0 0
0.097089 -0.017956 -0.092799 0 0 0
0.096132 -0.013156 -0.088079 0 0 0
0.096157 -0.023801 -0.10091 0 0 0
0.095536 -0.02708 -0.10558 0 0 0
0.093975 -0.012365 -0.089559 0 0 0
0.093064 -0.0097168 -0.087388 0 0 0
0.091819 -0.021397 -0.10291 0 0 0
0.091152 -0.022983 -0.10558 0 0 0
0.088458 -0.010993 -0.094131 0 0 0
0.090484 -0.0016547 -0.080558 0 0 0
0.088964 -0.0026252 -0.083447 0 0 0
0.089394 0.0033746 -0.075711 0 0 0
0.081278 0.0098353 -0.077069 0 0 0
0.079293 0.013214 -0.075227 0 0 0
0.069937 0.028968 -0.066757 0 0 0
0.077369 0.021374 -0.06754 0 0 0
0.073983 0.027458 -0.064012 0 0 0
0.065087 0.038844 -0.060297 0 0 0
0.064554 0.040253 -0.059198 0 0 0
0.061123 0.045887 -0.056264 0 0 0
0.057664 0.050918 -0.05409 0 0 0
0.065066 0.042886 -0.055436 0 0 0
0.043022 0.069744 -0.047876 0 0 0
0.04162 0.071473 -0.04737 0 0 0
0.04747 0.064913 -0.04869 0 0 0
0.05285 0.058461 -0.050411 0 0 0
0.05653 0.054182 -0.051426 0 0 0
0.060725 0.049159 -0.052758 0 0 0
0.050229 0.062451 -0.048549 0 0 0
0.043436 0.072042 -0.044631 0 0 0
0.042381 0.073696 -0.043822 0 0 0
0.096621 -0.011127 -0.085074 0 0 0
0.093487 -0.0072478 -0.083926 0 0 0
0.091719 -0.016968 -0.09767 0 0 0
0.090106 -0.025917 -0.11031 0 0 0
0.093528 0.0009152 -0.074014 0 0 0
0.093046 -0.0012383 -0.07716 0 0 0
0.090494 -0.0083553 -0.088645 0 0 0
0.092102 -0.0027349 -0.080035 0 0 0
0.092102 -0.0027349 -0.080035 0 0 0
0.086894 -0.0022898 -0.08538 0 0 0
0.083627 0.0057755 -0.079323 0 0 0
0.080802 0.0093711 -0.078167 0 0 0
0.074181 0.022389 -0.069913 0 0 0
0.073296 0.029614 -0.062181 0 0 0
0.057036 0.043447 -0.06383 0 0 0
0.070708 0.032791 -0.061264 0 0 0
0.064439 0.03975 -0.059935 0 0 0
0.064243 0.040523 -0.059222 0 0 0
0.05983 0.045064 -0.058719 0 0 0
0.039212 0.073188 -0.048017 0 0 0
0.032699 0.080981 -0.045955 0 0 0
0.052641 0.060224 -0.048516 0 0 0
0.045435 0.069358 -0.045617 0 0 0
0.054071 0.059092 -0.048269 0 0 0
0.054071 0.059092 -0.048269 0 0 0
0.098822 -0.016562 -0.089156 0 0 0
0.12493 -0.19366 -0.27371 0 0 0
0.098838 -0.024896 -0.099211 0 0 0
0.097963 -0.017538 -0.091306 0 0 0
0.092906 -0.019099 -0.098904 0 0 0
0.091317 -0.0053556 -0.084089 0 0 0
0.090878 -0.0013901 -0.079793 0 0 0
0.087542 -0.0015186 -0.083717 0 0 0
0.086022 0.0016974 -0.081546 0 0 0
0.077913 0.014226 -0.075565 0 0 0
0.07716 0.017034 -0.073019 0 0 0
0.07331 0.022878 -0.070306 0 0 0
0.074556 0.02632 -0.06474 0 0 0
0.059272 0.040022 -0.065445 0 0 0
0.072247 0.030615 -0.062156 0 0 0
0.072247 0.030615 -0.062156 0 0 0
0.065884 0.037409 -0.061133 0 0 0
0.069714 0.034053 -0.060863 0 0 0
0.065099 0.042504 -0.055861 0 0 0
0.051468 0.058372 -0.05208 0 0 0
0.063638 0.04452 -0.055075 0 0 0
0.030685 0.084767 -0.043654 0 0 0
0.098832 -0.018411 -0.09138 0 0 0
0.11192 -0.11068 -0.1881 0 0 0
0.22822 -2.3869 -2.8077 0 0 0
0.094482 -0.042774 -0.12574 0 0 0
0.058795 0.04408 -0.061078 0 0 0
0.064357 0.042164 -0.05711 0 0 0
0.063388 0.044659 -0.05519 0 0 0
0.054769 0.057048 -0.049951 0 0 0
0.059191 0.052614 -0.050315 0 0 0
0.098099 -0.0081202 -0.079771 0 0 0
0.099207 -0.029001 -0.10376 0 0 0
0.097711 -0.024306 -0.099771 0 0 0
0.088767 -0.0038851 -0.085192 0 0 0
0.084489 -0.0016539 -0.087328 0 0 0
0.084048 -0.00013423 -0.085989 0 0 0
0.057529 0.050703 -0.054502 0 0 0
0.062907 0.044694 -0.055691 0 0 0
0.062907 0.044694 -0.055691 0 0 0
0.032436 0.084135 -0.04244 0 0 0
0.094808 -0.0061803 -0.081143 0 0 0
0.092827 0.0016486 -0.073919 0 0 0
0.11269 -0.0014854 -0.055278 0 0 0
0.052357 0.061213 -0.047641 0 0 0
0.092794 -0.012311 -0.090827 0 0 0
0.092794 -0.012311 -0.090827 0 0 0
0.097234 -0.011871 -0.085281 0 0 0
0.096865 -0.014061 -0.088344 0 0 0
0.096298 -0.0085831 -0.082365 0 0 0
0.095991 -0.012566 -0.087525 0 0 0
0.094878 -0.012374 -0.088549 0 0 0
0.095643 -0.0097093 -0.084465 0 0 0
0.095248 -0.010204 -0.085509 0 0 0
0.094561 -0.031074 -0.11151 0 0 0
0.092462 -0.0086275 -0.08675 0 0 0
0.092326 -0.0075233 -0.085569 0 0 0
0.091509 -0.0119 -0.091783 0 0 0
0.09111 -0.013206 -0.093812 0 0 0
0.091092 -0.0064816 -0.085705 0 0 0
0.091941 -0.0032749 -0.08087 0 0 0
0.092897 -0.0018743 -0.078098 0 0 0
0.088571 0.0063104 -0.07309 0 0 0
0.091028 -0.0028228 -0.081355 0 0 0
0.084886 -0.020207 -0.095601 0 0 0
0.087984 -0.0020022 -0.083802 0 0 0
0.089316 0.003933 -0.075124 0 0 0
0.084772 0.012387 -0.070039 0 0 0
0.087621 0.0068891 -0.073466 0 0 0
0.086067 0.010115 -0.071322 0 0 0
0.084709 0.011559 -0.071112 0 0 0
0.081704 0.016623 -0.068384 0 0 0
0.082563 0.016108 -0.068038 0 0 0
0.079548 0.021312 -0.065153 0 0 0
0.078182 0.023017 -0.064636 0 0 0
0.0068242 0.021154 -0.1475 0 0 0
0.069005 0.032693 -0.063306 0 0 0
0.026777 0.069034 -0.0631 0 0 0
0.072864 0.030678 -0.061383 0 0 0
0.068458 0.036431 -0.059407 0 0 0
0.068458 0.036431 -0.059407 0 0 0
0.071915 -0.036084 -0.14326 0 0 0
0.071915 -0.036084 -0.14326 0 0 0
0.062261 0.044084 -0.057157 0 0 0
0.050432 0.057202 -0.054665 0 0 0
0.06637 0.040316 -0.05707 0 0 0
0.066799 0.04011 -0.056834 0 0 0
0.049465 0.06114 -0.050997 0 0 0
0.046428 0.064855 -0.049938 0 0 0
0.044904 0.06756 -0.04839 0 0 0
0.061934 0.047692 -0.053166 0 0 0
0.045732 0.067298 -0.047772 0 0 0
0.045732 0.067298 -0.047772 0 0 0
0.058568 0.051822 -0.051976 0 0 0
0.051712 0.060517 -0.049212 0 0 0
0.050007 0.062756 -0.048431 0 0 0
0.039384 0.077193 -0.042982 0 0 0
0.10037 -0.014519 -0.084943 0 0 0
0.09854 -0.016088 -0.088903 0 0 0
0.098167 -0.017135 -0.090589 0 0 0
0.096538 -0.0058483 -0.078789 0 0 0
0.09774 -0.018129 -0.092272 0 0 0
0.092876 -0.0092455 -0.087029 0 0 0
0.093734 -0.015013 -0.093032 0 0 0
0.094849 -0.0041219 -0.078609 0 0 0
0.094596 -0.00019754 -0.074153 0 0 0
0.092505 -0.009387 -0.08762 0 0 0
0.091548 -0.002039 -0.07982 0 0 0
0.089482 -0.0058846 -0.086802 0 0 0
0.089877 -0.0039089 -0.083967 0 0 0
0.087361 -0.0099362 -0.094095 0 0 0
0.090742 0.0013981 -0.076577 0 0 0
0.085284 0.01038 -0.071887 0 0 0
0.07958 0.021042 -0.065444 0 0 0
0.078844 0.022344 -0.064702 0 0 0
0.065913 0.034516 -0.064596 0 0 0
0.069537 0.031638 -0.063981 0 0 0
0.057716 0.065555 -0.03939 0 0 0
0.063774 0.040722 -0.05951 0 0 0
0.060136 0.048092 -0.054713 0 0 0
0.063003 0.04484 -0.055406 0 0 0
0.021549 0.094587 -0.042104 0 0 0
0.061316 0.047901 -0.053612 0 0 0
0.061314 0.047905 -0.053609 0 0 0
0.058244 0.052521 -0.051497 0 0 0
0.058711 0.052301 -0.051236 0 0 0
0.10051 -0.017216 -0.088038 0 0 0
0.09833 -0.010445 -0.082319 0 0 0
0.0981 -0.014014 -0.086892 0 0 0
0.099068 -0.01501 -0.087004 0 0 0
0.097711 -0.0091409 -0.081443 0 0 0
0.10012 -0.017606 -0.088951 0 0 0
0.096546 -0.0055071 -0.078367 0 0 0
0.095291 -0.0019163 -0.075444 0 0 0
0.091548 -0.0097045 -0.089085 0 0 0
0.089787 -0.022669 -0.10674 0 0 0
0.089261 0.0046789 -0.074284 0 0 0
0.088802 0.0051233 -0.074266 0 0 0
0.0785 0.012977 -0.07641 0 0 0
0.077941 0.015113 -0.07446 0 0 0
0.082677 0.015686 -0.068419 0 0 0
0.065612 0.03316 -0.066575 0 0 0
0.076917 0.025372 -0.063219 0 0 0
0.059837 0.044403 -0.05951 0 0 0
0.071774 0.032195 -0.060781 0 0 0
0.049474 0.058976 -0.053603 0 0 0
0.032831 0.081535 -0.045136 0 0 0
0.043174 0.068019 -0.049788 0 0 0
0.042385 0.069695 -0.048654 0 0 0
0.026959 0.08808 -0.043858 0 0 0
0.052231 0.060726 -0.048374 0 0 0
0.10359 -0.10022 -0.18488 0 0 0
0.10359 -0.10022 -0.18488 0 0 0
0.10269 -0.11355 -0.20201 0 0 0
0.096008 -0.0076276 -0.081537 0 0 0
0.095381 -0.0015626 -0.074916 0 0 0
0.090878 -0.0056016 -0.084883 0 0 0
0.089984 0.0034466 -0.074958 0 0 0
0.074219 0.018273 -0.074845 0 0 0
0.076563 0.026465 -0.062296 0 0 0
0.076948 0.025771 -0.062701 0 0 0
0.035316 0.077103 -0.047686 0 0 0
0.10393 -0.032699 -0.1029 0 0 0
0.097621 -0.021517 -0.096501 0 0 0
0.096039 -0.0048815 -0.078184 0 0 0
0.095624 -0.0035453 -0.077038 0 0 0
0.094559 -0.012277 -0.088794 0 0 0
0.093219 -0.019055 -0.098499 0 0 0
0.057564 0.050717 -0.054446 0 0 0
0.042799 0.079549 -0.062488 0 0 0
0.095972 -0.0083025 -0.082393 0 0 0
0.086935 0.0019159 -0.080251 0 0 0
0.077613 0.024717 -0.063223 0 0 0
0.097523 -0.014094 -0.087641 0 0 0
0.090141 -0.0052259 -0.085261 0 0 0
0.044573 0.063834 -0.053266 0 0 0
0.072999 0.027634 -0.06491 0 0 0
0.062729 0.038115 -0.063842 0 0 0
0.06993 0.034633 -0.059917 0 0 0
0.095247 -0.03863 -0.11987 0 0 0
0.095794 -0.03759 -0.11799 0 0 0
0.043646 0.062037 -0.056486 0 0 0
0.037213 -0.034495 -0.10047 0 0 0
0.10282 -0.0233 -0.092789 0 0 0
0.099941 -0.024105 -0.097009 0 0 0
0.097653 -0.023756 -0.099171 0 0 0
0.09462 -0.025281 -0.10444 0 0 0
0.094477 -0.010863 -0.087176 0 0 0
0.096905 -0.0070523 -0.079829 0 0 0
0.09333 -0.0089907 -0.086209 0 0 0
0.099563 0.010864 -0.05517 0 0 0
0.094688 -0.0069474 -0.082207 0 0 0
0.13657 -0.0011587 -0.027905 0 0 0
0.089534 -0.0035666 -0.083942 0 0 0
0.086528 0.0093626 -0.071711 0 0 0
0.087123 0.0077484 -0.07299 0 0 0
0.093485 -0.0033684 -0.07924 0 0 0
0.092604 -0.0027548 -0.079493 0 0 0
0.093426 -0.0022366 -0.077939 0 0 0
0.090628 0.0022182 -0.075715 0 0 0
0.073977 0.020629 -0.072271 0 0 0
0.082067 0.016938 -0.067595 0 0 0
0.087306 0.0076718 -0.072876 0 0 0
0.077689 0.018218 -0.070993 0 0 0
0.077689 0.018218 -0.070993 0 0 0
0.082268 0.016447 -0.067961 0 0 0
0.075337 0.024942 -0.065522 0 0 0
0.078084 0.02356 -0.06409 0 0 0
0.074338 0.026329 -0.064975 0 0 0
0.080945 0.019378 -0.065913 0 0 0
0.070035 0.033608 -0.061038 0 0 0
0.072801 0.030474 -0.061701 0 0 0
0.064756 0.039449 -0.059941 0 0 0
0.074336 0.029362 -0.061311 0 0 0
0.073772 0.030046 -0.061122 0 0 0
0.015208 0.12335 -0.014499 0 0 0
0.073053 0.031255 -0.060473 0 0 0
0.070857 0.035214 -0.058169 0 0 0
0.021236 0.097021 -0.039516 0 0 0
0.071814 0.033462 -0.059205 0 0 0
0.051799 0.058637 -0.051386 0 0 0
0.044467 0.068718 -0.047483 0 0 0
0.044467 0.068718 -0.047483 0 0 0
0.059525 0.050554 -0.052428 0 0 0
0.10193 -0.017231 -0.086457 0 0 0
0.10164 -0.024904 -0.096056 0 0 0
0.099017 -0.023414 -0.097217 0 0 0
0.099017 -0.023414 -0.097217 0 0 0
0.096542 -0.010897 -0.084885 0 0 0
0.056107 -0.024555 -0.10342 0 0 0
0.09218 -0.010985 -0.089918 0 0 0
0.090927 -0.009612 -0.089674 0 0 0
0.087542 -0.007795 -0.091302 0 0 0
0.094165 -0.0060606 -0.081725 0 0 0
0.08323 -0.0014741 -0.088532 0 0 0
0.079691 0.010878 -0.077602 0 0 0
0.087921 0.0060002 -0.074201 0 0 0
0.075886 0.01874 -0.072398 0 0 0
0.083857 0.012982 -0.070353 0 0 0
0.072381 0.026215 -0.067323 0 0 0
0.084358 0.012784 -0.070027 0 0 0
0.069081 0.031141 -0.065097 0 0 0
0.023675 0.066104 -0.069445 0 0 0
0.076909 0.025722 -0.062803 0 0 0
0.056213 0.047998 -0.059259 0 0 0
0.067845 0.038602 -0.057476 0 0 0
0.059181 0.049047 -0.054637 0 0 0
0.069578 0.036752 -0.057754 0 0 0
0.067403 0.039398 -0.057012 0 0 0
0.066324 0.0409 -0.056417 0 0 0
0.029568 0.087345 -0.0418 0 0 0
0.055035 0.054906 -0.052239 0 0 0
0.057617 0.052391 -0.052363 0 0 0
0.10233 -0.016376 -0.084966 0 0 0
0.099104 -0.0088722 -0.079545 0 0 0
0.099104 -0.0088722 -0.079545 0 0 0
0.12918 -0.075166 -0.12569 0 0 0
0.12918 -0.075166 -0.12569 0 0 0
0.096777 -0.009372 -0.082777 0 0 0
0.013734 0.1849 0.058219 0 0 0
0.083249 -0.0080673 -0.09648 0 0 0
0.093462 -0.0048906 -0.081105 0 0 0
0.082678 -0.0030327 -0.091039 0 0 0
0.085275 0.012082 -0.06984 0 0 0
0.091561 -1.9974e-05 -0.077366 0 0 0
0.088585 0.0050748 -0.07457 0 0 0
0.087457 0.0070083 -0.073507 0 0 0
0.070621 0.027776 -0.067424 0 0 0
0.078106 0.023445 -0.064204 0 0 0
0.07577 0.023434 -0.066855 0 0 0
0.060911 0.040046 -0.063562 0 0 0
0.063078 0.040079 -0.061074 0 0 0
0.066796 0.035968 -0.061843 0 0 0
0.046479 0.078175 -0.035993 0 0 0
0.013049 0.10086 -0.042025 0 0 0
0.013049 0.10086 -0.042025 0 0 0
0.048146 0.062444 -0.05091 0 0 0
0.057708 0.052112 -0.052598 0 0 0
0.069649 0.036859 -0.057545 0 0 0
0.051674 0.061127 -0.048518 0 0 0
0.056473 0.055121 -0.050356 0 0 0
0.054369 0.058134 -0.049091 0 0 0
0.10482 -0.02367 -0.090975 0 0 0
0.098966 -0.04236 -0.12017 0 0 0
0.10576 -0.030828 -0.098567 0 0 0
0.097171 -0.019086 -0.094072 0 0 0
0.095618 -0.0099446 -0.084779 0 0 0
0.094578 -0.01017 -0.086225 0 0 0
0.094562 -0.0035812 -0.07828 0 0 0
0.077794 0.012981 -0.077203 0 0 0
0.067155 0.032072 -0.066146 0 0 0
0.076669 0.026314 -0.062359 0 0 0
0.063896 0.042524 -0.057196 0 0 0
0.076196 0.027909 -0.060967 0 0 0
0.058077 0.05349 -0.050516 0 0 0
0.097047 -0.031611 -0.10935 0 0 0
0.079732 0.020812 -0.065549 0 0 0
0.07804 0.023463 -0.064256 0 0 0
0.07804 0.023463 -0.064256 0 0 0
0.07804 0.023463 -0.064256 0 0 0
0.080363 0.020443 -0.065283 0 0 0
0.063322 0.040375 -0.060441 0 0 0
0.046339 0.065492 -0.049268 0 0 0
0.036669 0.078542 -0.044418 0 0 0
0.010434 0.11429 -0.030847 0 0 0
0.037367 0.079159 -0.042884 0 0 0
0.04746 0.067109 -0.046048 0 0 0
0.092589 -0.0025063 -0.07921 0 0 0
0.07847 0.023397 -0.063851 0 0 0
0.06538 0.0399 -0.058691 0 0 0
0.07292 0.031977 -0.05975 0 0 0
0.097787 -0.0074452 -0.079307 0 0 0
0.094705 -0.0053638 -0.080273 0 0 0
0.094705 -0.0053638 -0.080273 0 0 0
0.057993 0.051266 -0.053297 0 0 0
0.08949 0.0040033 -0.074843 0 0 0
0.097815 -0.011051 -0.083634 0 0 0
0.092719 -0.0012836 -0.077585 0 0 0
0.094023 -0.015481 -0.09327 0 0 0
0.11345 -0.051059 -0.11433 0 0 0
0.10261 -0.023887 -0.093735 0 0 0
0.10176 -0.0228 -0.093381 0 0 0
0.035503 -0.10258 -0.26463 0 0 0
0.099189 -0.018372 -0.09093 0 0 0
0.11395 -0.052942 -0.11604 0 0 0
0.1112 -0.047676 -0.11278 0 0 0
0.017228 -0.094391 -0.27537 0 0 0
0.017228 -0.094391 -0.27537 0 0 0
0.048677 -0.08243 -0.2254 0 0 0
0.087574 0.0078065 -0.072411 0 0 0
0.092773 -0.0049939 -0.082009 0 0 0
0.1079 -0.042157 -0.10984 0 0 0
0.087559 -0.051145 -0.13622 0 0 0
0.086275 0.010396 -0.070748 0 0 0
0.084062 0.01368 -0.069279 0 0 0
0.084478 0.011356 -0.071617 0 0 0
0.11048 -0.0082112 -0.065894 0 0 0
0.081581 0.018034 -0.066819 0 0 0
0.067674 0.03221 -0.065393 0 0 0
0.013548 0.06281 -0.054843 0 0 0
0.062253 0.044391 -0.056795 0 0 0
0.071066 0.034314 -0.05902 0 0 0
0.010583 0.11175 -0.03375 0 0 0
0.07045 0.035575 -0.058192 0 0 0
0.061979 0.046721 -0.054288 0 0 0
0.03046 0.11663 -0.02484 0 0 0
0.029344 0.09138 -0.037176 0 0 0
0.092994 -0.0011202 -0.077077 0 0 0
0.093629 -0.0030812 -0.07873 0 0 0
0.09645 -0.010265 -0.084226 0 0 0
0.10616 -0.031757 -0.099232 0 0 0
0.060871 0.067557 -0.030359 0 0 0
0.086624 0.010787 -0.069882 0 0 0
0.10004 -0.019266 -0.091054 0 0 0
0.090618 0.0015516 -0.076532 0 0 0
0.087923 0.0070893 -0.072882 0 0 0
0.12558 -0.084875 -0.14149 0 0 0
0.085427 0.011438 -0.070446 0 0 0
0.085427 0.011438 -0.070446 0 0 0
0.086509 0.0077667 -0.073661 0 0 0
0.085136 0.011875 -0.070247 0 0 0
0.087552 0.0016023 -0.079933 0 0 0
0.013658 -0.05166 -0.22776 0 0 0
0.083736 0.012443 -0.071142 0 0 0
0.082066 0.0098986 -0.076103 0 0 0
0.069858 0.029341 -0.066394 0 0 0
0.06625 0.033496 -0.065448 0 0 0
0.077429 0.024379 -0.063839 0 0 0
0.018717 0.066838 -0.050393 0 0 0
0.070017 0.033526 -0.061157 0 0 0
0.068189 0.035854 -0.060409 0 0 0
0.074223 0.029438 -0.061348 0 0 0
0.053985 0.054485 -0.053934 0 0 0
0.066986 0.03912 -0.05782 0 0 0
0.072792 0.032048 -0.059808 0 0 0
0.036723 0.1048 -0.012625 0 0 0
0.0060922 0.092161 -0.040673 0 0 0
0.0035346 0.095143 -0.039538 0 0 0
0.01861 0.10125 -0.033376 0 0 0
0.03994 0.073928 -0.0463 0 0 0
0.029567 0.087346 -0.0418 0 0 0
0.071071 0.034588 -0.058683 0 0 0
0.021033 0.098482 -0.03798 0 0 0
0.040159 0.11053 -0.027153 0 0 0
0.039728 0.11438 -0.025377 0 0 0
0.059941 0.049412 -0.053338 0 0 0
0.038903 0.078392 -0.042076 0 0 0
-0.032419 0.25299 0.088382 0 0 0
0.11597 -0.0042517 -0.054912 0 0 0
0.098305 -0.014188 -0.086873 0 0 0
0.092002 -0.00085511 -0.077877 0 0 0
0.087268 0.0093345 -0.070909 0 0 0
0.088724 0.0058781 -0.073442 0 0 0
0.087149 0.0079202 -0.072753 0 0 0
0.086142 0.0097794 -0.071643 0 0 0
0.085574 0.01084 -0.071004 0 0 0
0.085442 0.010946 -0.071024 0 0 0
0.077261 0.025001 -0.063278 0 0 0
0.062622 0.041732 -0.059592 0 0 0
0.053086 0.080134 -0.040689 0 0 0
0.090263 0.002575 -0.075696 0 0 0
0.088744 0.0050197 -0.074456 0 0 0
0.092188 -0.0053843 -0.083141 0 0 0
0.083502 0.013286 -0.070387 0 0 0
0.083562 0.0055156 -0.07971 0 0 0
0.033395 0.081606 -0.044412 0 0 0
0.094714 -0.0095787 -0.085357 0 0 0
-0.0017455 -0.078875 -0.27805 0 0 0
0.08523 0.011964 -0.070034 0 0 0
0.083857 0.01418 -0.068906 0 0 0
0.072851 0.029334 -0.063022 0 0 0
0.068318 0.035259 -0.060982 0 0 0
0.075801 0.027498 -0.061909 0 0 0
0.045263 0.069611 -0.045505 0 0 0
0.028893 -0.043301 -0.099122 0 0 0
0.10003 -0.020341 -0.092365 0 0 0
0.072569 0.02802 -0.064929 0 0 0
0.074041 0.062484 -0.048083 0 0 0
0.069028 0.033231 -0.06263 0 0 0
0.068243 0.038862 -0.056711 0 0 0
0.049525 0.06507 -0.046179 0 0 0
0.0666 0.034281 -0.064104 0 0 0
0.090555 -0.0010427 -0.079738 0 0 0
0.069514 0.034696 -0.06031 0 0 0
0.084786 0.011723 -0.070826 0 0 0
0.079672 0.021041 -0.06534 0 0 0
0.078014 0.023162 -0.064651 0 0 0
0.052325 0.059362 -0.049915 0 0 0
0.0094902 -0.025739 -0.15006 0 0 0
-0.016048 -0.02004 -0.0013901 0 0 0
0.047241 -0.043931 -0.067686 0 0 0
-0.028207 0.002834 0.024761 0 0 0
0.079964 -0.044272 -0.08622 0 0 0
0.0943 -0.041661 -0.091086 0 0 0
0.031847 -0.016054 -0.046257 0 0 0
0.027751 -0.0086223 -0.038607 0 0 0
0.070538 0.0001666 -0.068339 0 0 0
0.03822 0.028061 -0.055973 0 0 0
0.03822 0.028061 -0.055973 0 0 0
0.0062034 0.027793 -0.082832 0 0 0
0.0062034 0.027793 -0.082832 0 0 0
0.066338 0.043774 -0.05462 0 0 0
0.03363 0.044765 -0.052936 0 0 0
0.03363 0.044765 -0.052936 0 0 0
0.066633 0.046791 -0.05367 0 0 0
0.064618 0.051775 -0.052002 0 0 0
0.071563 0.056139 -0.051023 0 0 0
0.010189 0.071502 -0.051603 0 0 0
0.033337 0.10188 -0.031888 0 0 0
0.035634 0.11206 -0.02675 0 0 0
0.035634 0.11206 -0.02675 0 0 0
0.03555 0.11766 -0.024124 0 0 0
0.038956 0.12208 -0.02193 0 0 0
0.037961 0.12565 -0.020279 0 0 0
0.022763 -0.052598 -0.056237 0 0 0
-0.038538 -0.019275 -0.014964 0 0 0
-0.003128 -0.0084274 -0.00084837 0 0 0
0.00020793 -0.0083624 -0.0056759 0 0 0
0.062793 -0.033906 -0.074244 0 0 0
0.01219 -0.014651 -0.025651 0 0 0
0.027277 -0.012143 -0.040141 0 0 0
0.059797 -0.013097 -0.065703 0 0 0
-0.013062 0.047683 0.089059 0 0 0
0.073734 0.0095814 -0.066885 0 0 0
0.0035928 0.024755 -0.028532 0 0 0
0.0054698 0.022498 -0.046497 0 0 0
0.0040215 0.015796 -0.086035 0 0 0
0.06064 0.055965 -0.049823 0 0 0
0.077981 0.068611 -0.047005 0 0 0
-0.0049663 0.059837 -0.070472 0 0 0
0.014516 0.071213 -0.049809 0 0 0
-0.0041 0.078388 -0.05457 0 0 0
0.054779 0.09745 -0.033023 0 0 0
0.00079658 0.088982 -0.044242 0 0 0
0.016233 0.093878 -0.037616 0 0 0
0.049485 0.10407 -0.03002 0 0 0
0.0091699 0.10734 -0.031803 0 0 0
0.033947 0.11422 -0.025828 0 0 0
-0.00073247 0.10909 -0.032599 0 0 0
0.021707 -0.078281 -0.071586 0 0 0
-0.022626 -0.042148 -0.022441 0 0 0
0.11074 -0.069753 -0.10752 0 0 0
0.10094 -0.065835 -0.10249 0 0 0
-0.024474 -0.015781 0.0061907 0 0 0
0.088572 -0.036817 -0.087327 0 0 0
-0.026679 0.018668 0.061712 0 0 0
-0.026399 0.027587 0.082019 0 0 0
0.075924 -0.01726 -0.075629 0 0 0
0.013977 0.049077 -0.05921 0 0 0
0.0069511 0.048255 -0.064266 0 0 0
0.046508 0.068126 -0.045044 0 0 0
0.019363 0.072718 -0.047431 0 0 0
0.016446 0.097241 -0.035843 0 0 0
0.012456 0.099215 -0.03553 0 0 0
-0.0036643 0.11512 -0.029359 0 0 0
0.00042481 0.12239 -0.024799 0 0 0
0.047169 -0.063152 -0.077342 0 0 0
0.097197 -0.078865 -0.10608 0 0 0
-0.021532 -0.029819 -0.01084 0 0 0
0.093903 -0.060491 -0.097984 0 0 0
-0.011446 -0.016539 -0.00094233 0 0 0
0.04457 0.062419 -0.047107 0 0 0
0.06014 0.064499 -0.046676 0 0 0
0.06014 0.064499 -0.046676 0 0 0
-0.0013019 0.06577 -0.062449 0 0 0
-0.0010188 0.089215 -0.04503 0 0 0
-0.0010188 0.089215 -0.04503 0 0 0
0.0011301 0.094522 -0.04101 0 0 0
0.0067068 -0.089802 -0.070959 0 0 0
-0.041311 -0.015356 -0.023792 0 0 0
-0.0090952 -0.0051426 0.0090484 0 0 0
0.073593 0.0337 -0.059394 0 0 0
0.012567 0.075072 -0.048099 0 0 0
-0.0010184 0.082721 -0.049996 0 0 0
-0.012127 0.094051 -0.045338 0 0 0
-0.018701 0.098963 -0.043204 0 0 0
0.028936 -0.04833 -0.058242 0 0 0
0.0388 -0.015802 -0.052033 0 0 0
0.04626 -0.018692 -0.059148 0 0 0
-0.011963 0.11822 -0.028845 0 0 0
0.020582 -0.040529 -0.047826 0 0 0
0.041837 -0.026448 -0.0583 0 0 0
0.043007 -0.02586 -0.058467 0 0 0
0.053135 0.094457 -0.034292 0 0 0
0.028153 0.099484 -0.03313 0 0 0
-0.014132 0.074538 -0.06138 0 0 0
0.0085877 0.021974 -0.061472 0 0 0
0.063819 -0.030865 -0.073809 0 0 0
0.07053 -0.081909 -0.11124 0 0 0
-0.014601 -0.024296 0.016162 0 0 0
-0.0075331 -0.02602 0.0058039 0 0 0
-0.014027 -0.01968 0.012261 0 0 0
-0.012876 -0.015654 0.0088913 0 0 0
0.018082 -0.013894 0.023047 0 0 0
0.0054526 -0.014811 -0.014405 0 0 0
0.031607 -0.0045685 -0.048597 0 0 0
0.029492 0.01663 -0.021169 0 0 0
0.061036 0.017083 -0.048036 0 0 0
0.022956 0.03378 -0.019259 0 0 0
0.067596 0.025928 -0.057556 0 0 0
0.023573 0.036624 -0.022711 0 0 0
0.023573 0.036624 -0.022711 0 0 0
0.00064419 0.044853 -0.026578 0 0 0
0.075198 0.043215 -0.066953 0 0 0
0.0025228 0.068557 -0.038369 0 0 0
0.068623 0.074815 -0.0723 0 0 0
0.043118 0.076495 -0.057049 0 0 0
0.0087949 0.11675 -0.046443 0 0 0
0.010201 0.11667 -0.049397 0 0 0
0.0024184 -0.0292 -0.0062763 0 0 0
-0.0060914 -0.010026 -0.0024447 0 0 0
-0.065961 0.063081 0.22328 0 0 0
-0.025568 0.016606 0.066677 0 0 0
-0.023423 0.020908 0.062636 0 0 0
0.058361 -0.061568 -0.2314 0 0 0
-0.014575 0.034326 0.025474 0 0 0
0.022018 0.027616 -0.015966 0 0 0
0.068642 0.016627 -0.055649 0 0 0
0.068642 0.016627 -0.055649 0 0 0
-0.013624 0.039406 0.019144 0 0 0
0.029356 0.055455 -0.037356 0 0 0
0.043335 0.081729 -0.058963 0 0 0
0.0036945 0.084097 -0.04202 0 0 0
0.052788 0.089564 -0.067491 0 0 0
0.042249 0.090517 -0.0614 0 0 0
-0.023341 0.10267 -0.0072448 0 0 0
0.03848 -0.044471 -0.030649 0 0 0
0.037119 0.07224 0.32084 0 0 0
0.051545 -0.029562 -0.041198 0 0 0
0.030174 -0.011661 -0.016162 0 0 0
0.0093482 -0.0050952 -0.0077242 0 0 0
-0.013782 0.036371 0.021243 0 0 0
0.064611 0.056746 -0.066553 0 0 0
-0.020738 0.097743 -0.0089373 0 0 0
0.073659 -0.034248 -0.045398 0 0 0
0.06356 0.067791 -0.069156 0 0 0
0.074743 0.06183 -0.075342 0 0 0
0.10535 -0.12258 -0.17465 0 0 0
0.10535 -0.12258 -0.17465 0 0 0
0.071694 -0.031912 -0.045439 0 0 0
0.060781 -0.021379 -0.044828 0 0 0
-0.0013241 -0.0039809 -0.0060073 0 0 0
0.049122 0.099444 -0.068962 0 0 0
0.035468 0.10794 -0.057673 0 0 0
-0.019443 -0.032194 0.0011664 0 0 0
0.051803 -0.032395 -0.038571 0 0 0
0.029696 -0.083371 -0.1028 0 0 0
-0.026262 0.0028129 0.05525 0 0 0
0.010306 -0.012228 -0.021608 0 0 0
0.04539 -0.014275 -0.039458 0 0 0
0.06614 -0.0086251 -0.062489 0 0 0
0.064428 0.033173 -0.059074 0 0 0
0.030112 0.044724 -0.051864 0 0 0
0.044636 0.051046 -0.059627 0 0 0
0.021857 0.06627 -0.046388 0 0 0
0.032017 0.090255 -0.050737 0 0 0
0.033162 0.10266 -0.05511 0 0 0
0.030093 0.10469 -0.055375 0 0 0
0.033556 -0.032484 0.031967 0 0 0
0.033556 -0.032484 0.031967 0 0 0
0.029086 -0.024126 -0.034487 0 0 0
0.056363 -0.025965 -0.043512 0 0 0
-0.0018642 -0.011288 -0.01457 0 0 0
0.072971 -0.024963 -0.054711 0 0 0
0.043339 -0.015474 -0.045549 0 0 0
0.0066034 0.093691 0.21238 0 0 0
0.031395 -0.0014521 -0.054282 0 0 0
0.0075844 0.074785 -0.023278 0 0 0
0.08053 -0.034926 -0.05657 0 0 0
0.055794 0.081851 -0.060007 0 0 0
-0.015516 0.10259 -0.04054 0 0 0
-0.027979 -0.028789 0.041863 0 0 0
0.07592 -0.025948 -0.059256 0 0 0
0.034625 0.059028 -0.051171 0 0 0
0.048158 -0.024978 -0.026049 0 0 0
0.02892 -0.015204 -0.039333 0 0 0
0.031498 -0.011151 -0.050593 0 0 0
0.067457 0.026423 -0.054436 0 0 0
-0.0015642 0.072084 -0.024816 0 0 0
0.03244 0.073977 -0.052792 0 0 0
-0.0025988 0.083161 -0.0306 0 0 0
0.01562 0.086896 -0.054088 0 0 0
0.0096561 0.096637 -0.029476 0 0 0
0.028299 0.10559 -0.055396 0 0 0
0.0065625 0.11029 -0.035208 0 0 0
0.0065625 0.11029 -0.035208 0 0 0
-0.005967 0.11274 -0.042125 0 0 0
0.01181 -0.031277 0.017757 0 0 0
-0.0080946 -0.036807 -0.019726 0 0 0
-0.020422 -0.033252 -0.015196 0 0 0
0.072942 -0.025411 -0.045857 0 0 0
0.03705 -0.018629 -0.039224 0 0 0
-0.053977 -0.041779 -0.16129 0 0 0
0.018001 -0.012522 -0.045926 0 0 0
0.059895 -0.012917 -0.054264 0 0 0
-0.004721 0.093651 -0.029069 0 0 0
0.036455 -0.029364 0.093276 0 0 0
0.073925 -0.032059 0.051805 0 0 0
0.07298 -0.029572 0.048025 0 0 0
0.077898 -0.030862 0.044574 0 0 0
0.015402 -0.029764 0.023871 0 0 0
0.099683 -0.048609 -0.086411 0 0 0
-0.036631 -0.035402 -0.06094 0 0 0
-0.0042193 0.080849 -0.029683 0 0 0
-0.0032871 0.095998 -0.027632 0 0 0
0.029631 0.12312 -0.0046586 0 0 0
-0.01145 -0.027227 0.091279 0 0 0
0.051512 -0.036219 -0.023455 0 0 0
-0.020328 -0.030787 -0.022218 0 0 0
0.076013 -0.03455 -0.047214 0 0 0
0.079451 -0.021444 -0.047415 0 0 0
0.015645 -0.014105 -0.040337 0 0 0
0.020601 0.066729 -0.052047 0 0 0
0.0093502 0.11744 -0.045638 0 0 0
0.059111 -0.036854 0.019187 0 0 0
0.07361 0.011565 -0.059339 0 0 0
0.062919 0.032245 -0.058561 0 0 0
0.01678 0.083276 -0.051585 0 0 0
0.013204 0.096023 -0.037725 0 0 0
0.0060019 0.12217 -0.047059 0 0 0
0.028255 -0.027375 0.069886 0 0 0
-0.0053501 -0.029827 -0.012766 0 0 0
0.040235 -0.019123 -0.034773 0 0 0
0.028773 -0.030052 0.094795 0 0 0
-0.026689 0.043328 -0.10833 0 0 0
-0.015511 -0.027675 0.090633 0 0 0
-0.022079 -0.031409 0.011057 0 0 0
0.04939 -0.015013 -0.04565 0 0 0
-0.035853 -0.0392 0.067172 0 0 0
0.060772 -0.026831 0.095927 0 0 0
-0.035718 -0.068401 -0.17502 0 0 0
0.070685 0.15109 -0.15874 0 0 0
0.078026 0.15438 -0.1463 0 0 0
0.075827 0.13454 -0.14676 0 0 0
0.09879 0.076594 -0.092364 0 0 0
0.058692 0.11026 -0.095984 0 0 0
0.081353 0.14833 -0.13948 0 0 0
0.078199 0.10578 -0.13656 0 0 0
0.081839 0.12355 -0.13442 0 0 0
0.081236 0.11425 -0.1336 0 0 0
0.096617 0.067995 -0.097023 0 0 0
0.10167 0.063082 -0.085765 0 0 0
0.088528 0.063286 -0.11102 0 0 0
0.10202 0.062485 -0.085074 0 0 0
0.088567 0.081227 -0.11513 0 0 0
0.088652 0.084447 -0.11566 0 0 0
0.068833 0.081827 -0.089392 0 0 0
0.089256 0.096349 -0.11695 0 0 0
0.089481 0.098676 -0.11699 0 0 0
0.089645 0.10084 -0.1171 0 0 0
0.089911 0.10316 -0.11703 0 0 0
0.090194 0.10541 -0.11692 0 0 0
0.090363 0.10672 -0.11684 0 0 0
0.090515 0.089461 -0.11361 0 0 0
0.090515 0.089461 -0.11361 0 0 0
0.104 0.057125 -0.082525 0 0 0
0.10429 0.056883 -0.08255 0 0 0
0.092696 0.11081 -0.11334 0 0 0
0.092458 0.063175 -0.1055 0 0 0
0.098956 0.047493 -0.08988 0 0 0
0.092338 0.066475 -0.10638 0 0 0
0.092506 0.070064 -0.10682 0 0 0
0.092451 0.082113 -0.10918 0 0 0
0.092545 0.081816 -0.10895 0 0 0
0.092612 0.085027 -0.10938 0 0 0
0.093142 0.10916 -0.11241 0 0 0
0.092939 0.095011 -0.11054 0 0 0
0.093006 0.097456 -0.11078 0 0 0
0.089983 0.041252 -0.072407 0 0 0
0.093592 0.062159 -0.10362 0 0 0
0.0934 0.078565 -0.10699 0 0 0
0.09402 0.10503 -0.11023 0 0 0
0.094244 0.058168 -0.10178 0 0 0
0.094186 0.067839 -0.10377 0 0 0
0.093949 0.071877 -0.10489 0 0 0
0.093969 0.08356 -0.1069 0 0 0
0.093935 0.083702 -0.10698 0 0 0
0.093924 0.086386 -0.10745 0 0 0
0.09429 0.089533 -0.10733 0 0 0
0.095086 0.064405 -0.10168 0 0 0
0.095877 0.057718 -0.09918 0 0 0
0.095872 0.0637 -0.10034 0 0 0
0.096685 0.046904 -0.095837 0 0 0
0.096685 0.046904 -0.095837 0 0 0
0.102 0.024786 -0.084609 0 0 0
0.096983 0.061698 -0.098232 0 0 0
0.096843 0.076725 -0.10092 0 0 0
0.10221 0.019091 -0.082866 0 0 0
0.095217 0.056705 -0.080327 0 0 0
0.099412 0.042091 -0.090791 0 0 0
0.099357 0.045073 -0.091405 0 0 0
