ply
format ascii 1.0
comment PCL generated
element vertex 1209
property float x
property float y
property float z
property uchar red
property uchar green
property uchar blue
element camera 0
property float view_px
property float view_py
property float view_pz
property float x_axisx
property float x_axisy
property float x_axisz
property float y_axisx
property float y_axisy
property float y_axisz
property float z_axisx
property float z_axisy
property float z_axisz
property float focal
property float scalex
property float scaley
property float centerx
property float centery
property int viewportx
property int viewporty
property float k1
property float k2
end_header
0.033391 -0.0096701 -0.054095 159 121 74
0.029548 -0.0087687 -0.056588 182 147 93
0.067276 -0.0055666 -0.054091 126 100 66
0.067293 -0.0056092 -0.054296 126 100 66
0.036302 0.0045326 -0.05496 68 47 22
0.036302 0.0045374 -0.054943 68 47 22
0.031637 0.0078468 -0.055389 150 115 75
0.031637 0.0078191 -0.055446 150 115 75
0.033249 0.010258 -0.054445 175 140 88
0.036449 0.013467 -0.054651 193 164 119
0.038579 0.016358 -0.054964 157 124 72
0.067663 0.024038 -0.05594 131 100 60
0.036883 0.026445 -0.053889 155 124 80
0.033796 0.029478 -0.056146 138 109 67
0.066705 0.029746 -0.052723 123 92 56
0.067957 0.039478 -0.057443 116 84 50
0.064672 0.041578 -0.058833 162 126 83
0.064872 0.043938 -0.05892 134 107 70
0.036667 0.048892 -0.056419 115 87 48
0.042734 0.050514 -0.06263 119 94 62
0.030815 0.056802 -0.055266 152 124 84
0.034587 0.05961 -0.053624 171 137 93
0.038442 0.059714 -0.053565 173 142 95
0.0070807 0.064306 -0.019715 129 106 68
0.0010027 0.067801 -0.019223 171 149 104
0.046675 0.068567 -0.055679 138 110 71
0.00089032 0.073996 -0.024486 164 135 87
0.015169 0.072654 -0.052614 146 119 77
-0.00066197 0.075527 -0.027887 128 101 72
0.013074 0.073773 -0.05524 117 89 55
0.015444 0.075467 -0.054373 147 118 76
0.032811 0.075786 -0.054597 148 118 78
0.019523 0.076457 -0.05421 149 123 79
0.052602 0.077466 -0.057561 99 76 43
0.001741 0.081832 -0.02555 143 120 75
0.0084723 0.082783 -0.028313 110 84 49
0.052067 0.083243 -0.056465 171 143 100
0.016739 0.08518 -0.054794 147 117 76
0.047508 0.085602 -0.055677 169 139 97
0.047508 0.085602 -0.055677 169 139 97
0.014509 0.089066 -0.05585 138 110 69
0.014509 0.089066 -0.05585 138 110 69
0.01698 0.088878 -0.055184 132 105 66
0.0027405 0.09365 -0.025613 67 47 11
0.04927 0.09086 -0.065269 181 146 92
0.026251 0.09406 -0.055066 121 95 59
0.027904 0.094029 -0.055446 118 92 55
0.024722 0.095727 -0.054614 157 131 90
-9.9197e-05 0.10017 -0.025996 167 145 94
0.032941 0.10186 -0.057014 150 117 69
0.034764 0.10427 -0.05633 168 135 85
0.005111 0.10621 -0.031557 173 145 92
0.038663 0.10981 -0.062208 181 154 117
0.030416 0.11054 -0.060538 148 121 87
0.087281 -0.030877 0.062229 44 37 34
0.0027476 -0.030768 0.037543 44 35 29
0.021553 -0.028643 -0.016985 130 100 63
0.074086 -0.037986 -0.046468 140 108 67
0.031882 0.094366 0.37116 115 87 52
-0.025071 -0.022516 -0.042904 53 45 34
-0.041192 -0.033336 -0.056356 56 44 35
-0.019684 0.017659 0.16907 48 38 29
0.025854 0.062673 0.24872 143 115 78
0.054039 -0.025774 -0.031523 115 87 59
-0.057618 -0.038638 -0.095038 50 42 35
-0.057618 -0.038638 -0.095038 50 42 35
0.015423 -0.019593 -0.018494 137 111 75
0.039474 -0.023697 -0.032462 139 115 87
0.046133 -0.021528 -0.030787 159 126 87
-0.035421 -0.036389 -0.10208 62 54 46
0.0029545 -0.014373 -0.021157 144 123 85
0.00088702 -0.013182 -0.024652 96 79 54
0.0050705 -0.011189 -0.0217 85 64 37
0.013441 -0.012566 -0.046058 135 109 79
0.030271 -0.012999 -0.049658 195 167 129
0.069089 -0.013328 -0.047895 198 168 127
0.038886 -0.012246 -0.054447 141 102 65
0.065594 -0.011558 -0.054365 106 75 43
0.052584 0.026355 -0.030211 148 111 60
0.031482 -0.0013396 -0.055336 79 53 21
0.033527 0.0030263 -0.054935 156 123 72
0.041644 0.013571 -0.061339 167 130 77
0.03829 0.029207 -0.056289 151 117 83
0.064601 0.030162 -0.058281 150 123 79
0.075096 0.0479 -0.063124 105 78 45
0.03274 0.052656 -0.055144 113 88 60
0.068596 0.051884 -0.05601 107 80 49
0.027972 0.056566 -0.053808 56 41 19
0.0035716 0.062187 -0.019505 149 121 76
0.02647 0.059464 -0.053603 176 147 100
0.06391 0.060395 -0.057098 109 80 47
0.044878 0.065633 -0.055235 142 110 69
0.0038698 0.070305 -0.01996 116 98 59
0.0035756 0.074269 -0.026738 131 110 73
0.048187 0.072273 -0.05549 158 130 86
0.048187 0.072273 -0.05549 158 130 86
-0.0035554 0.075961 -0.029063 57 35 9
0.023383 0.076101 -0.054526 154 125 80
0.0063194 0.0845 -0.029332 121 99 63
0.023639 0.083126 -0.054848 148 118 75
-0.0072442 0.085893 -0.030025 132 113 74
-0.00055384 0.086602 -0.0289 118 99 59
0.028089 0.085226 -0.054949 172 147 105
0.0010771 0.090736 -0.027598 152 127 85
-0.0059278 0.091179 -0.028208 108 87 61
-0.0088412 0.091864 -0.031169 80 62 39
0.037076 0.089643 -0.054155 159 133 92
0.040062 0.090137 -0.055203 158 130 87
-0.00046031 0.092772 -0.027067 91 74 49
0.0063559 0.093319 -0.027395 124 102 71
0.0063625 0.093283 -0.027631 124 102 71
0.020175 0.096744 -0.055338 132 106 67
0.00046029 0.10256 -0.028888 203 175 117
0.017556 0.10445 -0.058207 161 131 84
0.014039 0.11172 -0.058441 152 126 83
0.0098878 0.10185 0.0608 132 109 61
-0.0063536 0.11794 -0.048821 155 130 93
-0.0031306 0.11848 -0.046862 156 133 92
0.0077973 -0.031425 0.040227 46 38 33
-0.0031933 -0.0331 0.031369 46 38 33
0.0049575 -0.034506 0.013132 54 44 40
0.0050709 -0.034363 0.013577 54 44 40
-0.0009097 -0.034262 -0.019151 80 58 30
0.054904 -0.035902 -0.033567 72 52 32
0.054926 -0.035963 -0.033714 72 52 32
0.058508 -0.03596 -0.037707 161 133 96
0.058551 -0.036033 -0.037981 161 133 96
-0.044164 -0.033976 -0.051961 48 39 30
0.017118 -0.022145 -0.018117 115 88 58
-9.8381e-06 -0.022431 -0.02396 124 104 71
0.067672 -0.027158 -0.047442 134 100 61
-0.043005 -0.025542 -0.0048101 45 40 32
0.046076 -0.01547 -0.030958 177 146 107
0.052968 -0.015336 -0.03618 177 148 108
0.049005 -0.014282 -0.033709 154 121 86
0.025841 -0.013706 -0.058141 209 177 133
-0.0051726 -0.0085502 -0.03565 79 59 34
0.078066 -0.011794 -0.061351 150 114 70
0.044797 0.039647 0.18998 161 124 85
0.040789 0.005955 -0.059716 168 135 98
-0.00077334 0.057029 -0.021249 156 139 95
0.062427 0.053929 -0.055331 61 43 15
-0.0021193 0.0025092 -0.98154 163 147 102
0.047827 0.062433 -0.055571 124 94 58
0.0055871 0.07675 -0.027743 109 83 50
0.060665 0.073112 -0.058585 152 128 101
0.045113 0.074804 -0.05533 124 93 56
0.031936 0.08127 -0.054729 155 128 87
-0.0047332 0.08634 -0.030553 120 105 68
0.055623 0.091245 -0.044404 172 134 83
0.0017787 0.095979 -0.02498 169 150 103
0.029432 0.096685 -0.054609 159 134 90
0.025119 0.10391 -0.057714 176 146 95
0.025119 0.10391 -0.057714 176 146 95
0.033338 0.1074 0.099118 163 134 91
0.025157 0.11051 -0.061104 171 142 92
-0.0014116 0.11269 -0.038133 143 119 76
0.0098603 0.11749 -0.047767 117 104 86
-0.0060817 0.11796 -0.046328 155 130 93
-0.0032907 -0.033288 0.030769 46 38 33
0.014534 -0.030248 0.026381 48 41 37
0.028657 -0.035457 -0.03141 134 106 72
0.038051 -0.016663 0.033929 72 52 32
-0.0039519 -0.028836 -0.019879 121 101 67
0.050235 -0.0265 -0.031058 137 108 66
-0.049849 -0.038778 -0.093481 45 39 31
0.0092138 -0.012851 -0.02431 140 112 73
0.078359 -0.011227 -0.060973 173 132 80
0.040719 0.0057273 -0.060912 168 135 98
0.0768 0.057569 -0.063671 172 145 110
0.019233 0.062396 -0.055622 150 124 76
0.047927 0.062735 -0.053885 137 109 69
0.06005 0.068321 -0.055705 135 104 66
0.007628 0.090219 -0.029275 92 74 48
0.023963 0.097623 -0.055298 156 131 89
0.029515 0.097078 -0.05453 157 130 86
0.043565 0.096754 -0.065268 162 130 86
0.025029 0.10386 -0.057765 174 144 90
0.025025 0.1039 -0.057663 174 144 90
0.024842 0.11033 -0.06095 167 135 81
0.0015883 0.11923 -0.050567 155 130 82
0.04279 -0.028097 0.078615 46 39 34
0.062671 -0.033191 -0.041301 153 124 89
0.0060295 -0.022344 -0.018953 114 92 59
0.027522 -0.022619 -0.030461 152 125 89
0.036036 -0.023206 -0.032343 142 117 78
0.0045786 0.077921 -0.025076 116 93 60
0.037669 -0.034383 -0.029904 130 103 64
0.040459 -0.020487 -0.039021 101 70 49
0.044989 -0.014055 -0.044654 166 142 109
0.071062 0.06276 -0.06501 177 137 90
0.06509 0.070267 -0.06633 149 115 71
0.065092 0.070607 -0.06353 149 115 71
0.033672 0.078697 -0.053996 147 115 76
-0.014553 0.11524 -0.044472 160 135 78
0.018423 -0.031673 -0.01854 136 106 72
0.073634 -0.031173 -0.04681 150 115 71
0.039801 0.082661 0.32362 121 102 81
0.061219 -0.020734 -0.043735 134 101 64
0.016422 -0.011945 -0.035849 195 170 128
0.052257 0.083811 -0.065212 179 148 105
0.027961 0.091388 -0.055302 137 107 70
0.036087 0.10575 -0.06244 162 130 84
0.036132 0.10589 -0.056351 162 130 84
0.00378 0.034469 -0.064468 94 66 28
0.0051492 0.039612 -0.028919 94 66 28
0.069077 0.0022873 -0.060896 173 142 96
0.035666 0.017711 -0.060764 166 133 83
0.035666 0.017711 -0.060764 166 133 83
0.035946 0.0366 -0.061612 161 124 82
0.035946 0.0366 -0.061612 161 124 82
0.06905 0.036295 -0.062205 147 116 73
0.069012 0.035979 -0.062891 147 116 73
0.034742 0.058721 -0.054334 175 144 96
0.0038359 0.065567 -0.02355 116 92 57
-0.053165 -0.026073 -0.061328 48 40 33
0.002306 0.10709 -0.035952 179 153 95
0.002306 0.10709 -0.035952 179 153 95
0.065555 -0.024823 -0.060575 131 97 61
0.0028649 0.107 -0.031675 179 152 94
0.0028649 0.107 -0.031675 179 152 94
0.015778 0.10167 0.080453 140 113 74
-0.0051937 -0.035414 -0.020799 64 48 22
0.036359 -0.035893 -0.030509 143 115 78
0.072561 -0.03584 -0.046756 126 94 57
0.040604 -0.031278 -0.030757 124 99 67
-0.0044553 -0.029564 -0.020484 114 96 62
0.019404 -0.026092 -0.017809 132 113 79
0.051259 -0.027035 -0.030995 130 100 63
0.060973 -0.03081 -0.047539 139 107 64
0.036117 -0.02412 -0.031659 139 112 76
0.01532 -0.019801 -0.018816 152 126 85
0.037464 -0.022047 -0.037231 94 72 52
0.026695 -0.020907 -0.042798 135 103 64
0.048503 -0.015201 -0.031606 143 108 70
0.045712 -0.014396 -0.032416 187 154 115
0.0009072 -0.012998 -0.023638 120 98 64
0.05631 -0.01421 -0.038214 158 128 86
0.0072585 -0.0095346 -0.023353 106 81 45
0.083872 -0.015305 0.018909 63 51 42
0.01254 -0.013019 -0.062405 121 94 53
0.073234 -0.0069293 -0.054968 174 140 98
0.059888 -0.0088041 -0.061897 142 107 65
0.075722 -0.0072872 -0.060502 175 140 90
0.067329 -0.0055387 -0.05414 129 101 63
0.067329 -0.0055387 -0.05414 129 101 63
0.075669 -0.0024456 -0.060798 172 135 86
0.043015 -0.0017319 -0.062725 139 109 78
0.036283 0.0045072 -0.055061 147 112 62
0.042999 0.0055951 -0.063361 144 119 88
0.073118 0.0073258 -0.060146 141 107 69
0.039971 0.009136 -0.058856 104 75 46
0.075451 0.0093386 -0.061643 172 138 92
-0.018138 -0.026203 -0.13227 255 252 179
0.0064497 0.018646 -0.05667 159 130 85
0.068944 0.0211 -0.055426 150 117 75
0.068944 0.0211 -0.055426 150 117 75
0.071024 0.025891 -0.058292 171 136 88
0.0298 0.025819 -0.058558 122 92 52
0.067113 0.030763 -0.057089 105 75 32
0.0054554 0.041894 -0.023393 154 125 80
0.0075817 0.052379 -0.026032 62 51 38
0.036696 0.048982 -0.056304 162 130 89
0.008123 0.051075 -0.059155 76 55 26
0.038246 0.05199 -0.063474 121 96 68
0.077345 0.052022 -0.063997 142 112 70
0.0082118 0.058769 -0.02126 151 128 87
0.039283 0.054666 -0.057775 64 44 17
0.04324 0.059645 -0.053702 167 140 101
0.0097375 0.059363 -0.055088 98 73 44
0.0094642 0.061845 -0.046717 131 109 71
0.015082 0.062231 -0.055225 145 120 81
0.056807 0.061942 -0.056551 142 112 73
0.0009462 0.06782 -0.019631 84 64 32
0.028227 0.071428 -0.054111 139 109 72
0.067419 0.071106 -0.067379 150 119 84
0.0084226 0.075018 -0.029062 107 85 52
0.01302 0.073768 -0.055046 113 84 41
0.01302 0.073768 -0.055046 113 84 41
0.055668 0.072288 -0.06826 127 108 82
0.056736 0.077619 -0.063178 156 130 95
-0.0041337 0.081285 -0.02783 84 64 38
0.0038779 0.08522 -0.028979 130 108 64
0.051805 0.08329 -0.056813 167 143 97
0.0096165 0.085262 -0.052649 142 119 84
0.038281 0.085525 -0.055158 152 123 81
0.047507 0.085622 -0.055745 170 141 99
0.047507 0.085622 -0.055745 170 141 99
0.014267 0.089147 -0.055155 132 104 66
0.015029 0.095675 -0.055166 107 83 46
0.039928 0.098451 -0.05932 108 83 48
0.034089 0.099962 -0.056043 145 113 69
0.034089 0.099962 -0.056043 145 113 69
0.016035 0.10283 -0.057236 138 109 67
0.015829 0.10281 -0.057859 138 109 67
0.0069597 0.10471 -0.034972 188 156 95
0.0010767 0.10603 -0.029751 160 136 84
0.028338 0.10546 -0.057701 132 103 58
0.021075 -0.034863 -0.019288 54 37 18
0.074445 -0.037409 -0.044934 146 114 76
0.021638 -0.029059 -0.017741 94 72 44
0.039147 -0.0291 -0.029939 143 117 78
0.028921 -0.028443 -0.028305 115 87 49
0.054088 -0.025652 -0.031148 144 115 78
0.073011 -0.025611 -0.047065 152 117 76
0.050651 -0.019874 -0.032415 132 98 57
0.072397 -0.023057 -0.049089 159 122 81
0.070588 -0.02101 -0.047279 144 107 68
0.051629 -0.01675 -0.035652 135 103 64
0.040522 -0.014026 -0.038585 197 165 126
0.043321 -0.014341 -0.04108 195 167 131
0.0089858 -0.010291 -0.02852 243 220 178
-0.068619 -0.039597 -0.14066 55 48 39
0.065821 -0.011185 -0.052483 137 105 65
0.0441 -0.0042086 -0.033328 48 32 22
0.038495 -0.0019833 -0.054533 146 110 63
0.06222 0.0061804 -0.058186 158 127 96
0.0056692 0.0091508 -0.056775 135 104 58
0.03874 0.020865 -0.055005 162 125 74
0.013933 0.025173 -0.062317 151 115 56
0.0090183 0.048055 -0.062443 147 116 69
-0.00078607 0.056891 -0.022266 97 85 56
-0.02221 -0.018554 -0.12408 142 114 67
0.075918 0.054239 -0.059354 96 76 51
0.044349 0.054719 -0.063289 124 97 54
-0.0047425 0.061192 -0.022681 102 85 53
0.011924 0.059079 -0.062335 96 74 40
0.0090398 0.064899 -0.020362 105 81 45
0.062731 0.062906 -0.057371 164 130 88
-0.0045297 0.073183 -0.02897 165 137 88
0.065377 0.073169 -0.05891 172 145 117
-0.00644 0.083046 -0.029371 96 76 44
-0.0019435 0.083494 -0.029234 106 84 51
0.041695 0.081442 -0.055691 159 130 86
-0.0061299 0.091081 -0.029014 106 85 57
0.0058654 0.090992 -0.029016 153 128 82
0.040064 0.09018 -0.054863 161 134 91
-0.0078976 0.10188 -0.031562 120 96 45
0.034845 0.10415 -0.057738 174 141 91
0.034639 0.10416 -0.058555 174 141 91
0.014167 0.10459 -0.056172 120 91 50
0.0078482 0.10659 -0.037585 165 139 86
0.0095969 0.10658 -0.043761 134 109 70
0.040712 0.10655 -0.065101 154 122 71
-0.0013789 0.11284 -0.038205 160 133 88
-0.0066638 0.11795 -0.047581 157 134 93
-0.0027264 0.11846 -0.044824 161 137 102
-0.01982 -0.031763 -0.021612 122 105 69
0.027571 -0.029312 -0.030794 127 98 64
0.055805 -0.023594 -0.03276 115 86 56
0.036593 -0.017807 -0.038362 144 114 74
0.068449 -0.013407 -0.049051 164 130 91
0.068608 -0.013222 -0.048237 164 130 91
0.035811 -0.013647 -0.04817 222 194 158
0.0089389 0.0054976 -0.062664 173 138 91
0.068839 0.016703 -0.055377 73 48 29
0.068839 0.016703 -0.055377 73 48 29
0.029956 0.047331 -0.061221 133 103 61
0.069328 0.047948 -0.059214 144 113 76
0.0052749 0.048617 -0.05576 120 90 48
0.042405 0.056005 -0.055034 75 58 41
0.04799 0.062412 -0.055322 150 125 82
0.043878 0.063158 -0.055501 89 61 32
0.020387 0.066198 -0.054704 135 105 65
0.0073221 0.095958 -0.026645 163 143 99
0.034335 0.11 -0.060726 180 152 110
0.013834 0.11173 -0.060567 146 116 70
-0.006531 0.11794 -0.047752 157 134 93
0.0017323 0.11993 -0.049977 161 137 93
0.0082188 -0.03406 -0.018946 120 101 63
0.048873 -0.034852 -0.030867 163 133 91
0.028247 -0.03561 -0.032574 127 102 65
-0.0041871 -0.029 -0.020606 108 89 53
0.024387 -0.024385 -0.022622 142 120 79
0.010072 -0.015924 -0.021364 95 70 43
-0.0038643 -0.014187 -0.027175 163 146 112
0.010889 -0.011039 -0.034197 242 219 183
0.06318 0.031155 -0.058937 155 123 78
0.029456 0.012971 0.026799 134 111 69
0.063545 0.042865 -0.05974 138 105 65
0.067671 0.051748 -0.057766 101 75 42
0.0060465 0.057425 -0.019794 74 56 26
0.061415 0.057589 -0.056113 158 128 91
0.024968 0.081738 -0.055367 163 137 91
0.019795 0.095084 -0.054952 128 104 68
0.016757 0.098448 -0.054192 165 136 89
0.025019 0.10379 -0.057545 174 144 96
0.03779 -0.034356 -0.030019 132 104 67
0.062382 -0.034232 -0.046279 153 122 85
0.063038 0.013657 -0.058408 179 145 100
0.016666 0.083104 -0.054385 146 115 68
-0.0043733 0.097739 -0.026954 143 124 75
0.0094307 0.11678 -0.046162 167 140 90
0.063122 -0.029859 0.093529 61 55 50
-0.0062781 -0.03263 -0.020065 115 93 60
0.040317 -0.021243 -0.040814 105 79 54
0.0042544 0.077745 -0.025774 87 71 41
-0.015707 0.11512 -0.048476 161 134 79
0.0027947 0.0022763 -0.02716 128 108 75
0.0074291 0.0020086 -0.058334 176 145 97
0.0079651 0.044478 -0.056985 163 127 71
0.032083 0.05984 -0.054684 164 132 88
0.053819 0.067225 -0.055808 159 128 84
0.011928 0.074815 -0.041219 106 81 47
0.012789 0.092725 -0.042846 107 82 54
0.034312 0.10325 -0.057599 172 140 90
0.0021904 0.1074 -0.037179 180 150 94
0.0024032 0.10739 -0.03652 180 150 94
0.010414 -0.02486 -0.052052 133 105 68
0.010827 -0.023893 -0.051559 133 105 68
0.044274 -0.035717 -0.029536 144 116 76
0.022356 -0.034596 -0.02419 97 72 44
0.056699 -0.032175 -0.037628 109 81 55
0.069185 -0.030014 -0.045389 149 114 75
0.0036222 -0.021505 -0.022083 123 104 71
0.023032 -0.021682 -0.028164 139 112 76
0.026844 -0.022346 -0.04116 148 119 87
0.013113 -0.017324 -0.022556 98 78 46
0.063265 -0.020255 -0.047681 137 103 67
0.024085 -0.018732 -0.036417 124 95 63
0.031684 -0.014169 -0.045341 112 85 44
0.023393 -0.013713 -0.052988 151 119 73
0.036265 0.0045365 -0.055041 71 45 24
0.0072664 0.0092287 -0.060087 165 135 95
0.0072664 0.0092287 -0.060087 165 135 95
0.012466 0.0072357 -0.083623 86 60 28
0.0097551 0.010813 -0.065954 135 106 61
0.072101 0.015636 -0.0566 159 128 88
-0.028696 -0.0047987 -0.15007 255 232 165
0.040478 0.045187 -0.059541 104 76 40
0.006325 0.05437 -0.023941 88 70 43
0.00031793 0.059354 -0.022356 121 103 71
0.065744 0.070574 -0.057292 146 118 80
0.015594 0.072516 -0.054007 134 109 63
0.0094883 0.073595 -0.054543 75 52 26
0.051031 0.075954 -0.056528 120 95 72
-0.0042375 0.079195 -0.027272 75 58 34
0.023898 0.077971 -0.054463 145 116 71
0.0017176 0.081886 -0.025657 99 77 47
0.056802 0.079807 -0.064436 73 46 19
0.057691 0.081083 -0.068034 176 148 108
0.039705 0.087638 -0.054212 121 92 55
0.0092081 0.089423 -0.031985 96 73 41
0.014508 0.089173 -0.054536 134 106 67
-0.00048845 0.092677 -0.027345 54 37 16
0.011012 0.093612 -0.054201 86 67 43
0.038079 0.093921 -0.054912 171 141 96
0.0097219 0.096288 -0.027647 117 94 54
0.034317 0.09506 -0.054584 130 104 67
0.020204 0.096808 -0.055155 139 116 76
0.041118 0.096675 -0.066293 179 151 109
0.034765 0.097489 -0.054861 144 115 72
0.011947 0.098552 -0.054314 107 86 51
-0.0066489 0.10078 -0.03291 162 143 90
0.010173 0.1013 -0.045287 142 119 78
-0.0055184 0.10373 -0.030744 164 143 94
0.03892 0.10687 -0.059434 182 152 101
0.0088551 0.10885 -0.036483 167 143 92
0.010026 0.11371 -0.044608 179 157 112
0.090791 -0.029613 0.059793 42 33 29
0.0036254 -0.034399 -0.019429 120 100 64
-0.013763 -0.026745 -0.022036 150 132 96
0.039902 -0.024319 -0.033063 126 100 66
-0.00020379 -0.021306 -0.02025 113 95 66
0.020341 -0.019325 -0.019123 120 98 65
-0.01567 -0.015383 -0.023621 56 49 38
0.007372 -0.013168 -0.023863 75 53 21
0.0045991 -0.011838 -0.023627 98 75 50
0.038087 -0.0038197 -0.054945 142 106 61
0.041748 -0.004001 -0.061625 173 135 87
0.041739 0.0085342 -0.061965 173 139 96
0.041851 0.013906 -0.061873 180 146 94
0.038257 0.029299 -0.056462 79 52 27
0.038257 0.029299 -0.056462 79 52 27
0.0093773 0.057243 -0.053116 110 86 50
0.043235 0.059776 -0.053726 158 131 93
0.063143 0.027237 -0.08224 109 83 53
0.0011333 0.064963 -0.018638 161 146 108
0.009006 0.064869 -0.020423 129 107 68
0.0040709 0.070391 -0.019624 151 129 84
0.0027235 0.073955 -0.027056 153 126 80
0.0040658 0.076049 -0.032499 107 79 43
0.0088574 0.082382 -0.027238 121 97 61
0.0063529 0.084477 -0.029165 132 110 64
0.038185 0.09829 -0.055769 176 150 103
0.038312 0.10126 -0.057128 185 155 102
0.013277 0.10301 -0.057006 132 106 68
0.017693 0.10438 -0.05786 159 128 81
0.038973 0.10963 -0.061299 177 148 107
0.025445 -0.023292 -0.031045 157 131 95
-0.0041582 -0.019188 -0.021686 111 90 57
0.022846 -0.015693 -0.03355 110 86 51
0.063583 -0.016045 -0.049454 162 130 90
0.075954 -0.013431 -0.059026 129 99 71
0.061586 0.050834 -0.10118 182 147 99
0.0036181 0.062603 -0.019613 149 132 99
0.03534 0.067144 -0.054492 129 100 60
0.054369 0.080364 -0.057178 176 149 106
0.0094298 0.082765 -0.04675 110 87 54
0.10063 0.090924 0.07481 164 138 99
0.011706 0.09946 -0.029957 122 100 60
0.0003971 0.10253 -0.029741 176 153 100
0.0003971 0.10253 -0.029741 176 153 100
0.02531 0.10377 -0.057173 169 140 87
0.010647 0.10763 -0.058284 99 78 49
0.0054676 -0.03333 0.01743 42 37 30
0.0092904 -0.034482 0.01263 47 40 37
0.050313 -0.026234 -0.030818 140 108 69
0.050313 -0.026234 -0.030818 140 108 69
0.020821 -0.017315 -0.022412 139 112 78
-0.00042567 0.056879 -0.020818 128 109 71
0.0098756 0.063931 -0.028515 108 83 46
0.0083895 0.079707 -0.039646 96 73 44
0.0090602 0.10344 -0.037578 202 174 116
0.057742 -0.027285 -0.041716 115 85 58
0.0026406 -0.017438 -0.019265 116 96 66
-0.01044 -0.016158 -0.023731 63 51 39
0.031297 0.0014615 -0.057241 157 128 85
0.0091994 0.058287 -0.031838 125 106 65
0.075675 0.056045 -0.070939 169 136 96
0.0099289 0.068913 -0.050704 101 74 40
0.05343 0.085778 -0.070544 185 151 96
0.058518 -0.031528 0.067626 52 44 36
0.0369 -0.02178 -0.028928 136 107 76
0.064699 0.069143 -0.066984 146 114 69
0.028224 0.091411 -0.054325 136 108 67
0.0075904 0.11709 -0.043728 141 114 63
-0.016097 -0.030852 -0.024821 120 102 63
0.036198 -0.029072 -0.026537 134 109 70
0.052096 0.016999 -0.061003 107 82 52
0.0086554 0.093063 -0.026305 149 124 78
0.0086554 0.093063 -0.026305 149 124 78
-0.054281 0.020906 -0.15455 255 255 176
0.0074028 0.03029 -0.02287 109 81 42
0.075784 -0.038865 -0.053594 60 41 18
0.060093 -0.041347 -0.050742 119 89 51
0.075297 -0.037349 -0.055561 127 101 66
0.076536 -0.03646 -0.057759 117 95 65
0.075439 -0.037961 -0.071148 123 95 61
0.048822 -0.039549 -0.051793 75 50 24
0.042239 -0.035975 -0.03629 143 115 78
0.072796 -0.029398 -0.049066 89 64 37
0.076706 -0.027941 -0.063529 151 127 92
0.074457 -0.027786 -0.066925 100 71 44
0.078003 -0.026632 -0.066191 100 71 44
0.076754 -0.024808 -0.058874 127 102 72
0.053956 -0.025364 -0.036874 77 56 31
0.043197 -0.028768 -0.05114 92 64 37
0.050809 -0.02497 -0.033113 160 132 96
0.010078 -0.033212 -0.035055 171 147 103
0.077889 -0.018597 -0.059483 122 96 62
0.018164 -0.023895 -0.023643 105 78 46
0.019362 -0.023496 -0.026551 94 71 43
0.017835 -0.022258 -0.021592 142 115 74
0.060819 -0.016586 -0.049237 107 79 47
0.028295 -0.021053 -0.034891 136 106 66
0.054307 -0.015951 -0.044255 145 117 79
0.052622 -0.0168 -0.047356 210 182 149
0.041921 -0.017841 -0.042508 145 116 76
0.016489 -0.020803 -0.027211 148 117 74
0.068873 -0.012755 -0.058333 86 63 36
0.027156 -0.018023 -0.04971 110 80 43
0.061757 -0.012897 -0.067577 141 113 73
0.017104 -0.016177 -0.029887 86 60 28
0.025485 -0.016766 -0.04893 113 81 42
0.060974 -0.010815 -0.067178 126 94 56
0.010649 -0.015999 -0.026016 123 98 58
0.0097046 -0.017372 -0.048587 154 127 84
0.0097046 -0.017372 -0.048587 154 127 84
0.0073096 -0.016358 -0.037358 144 116 76
0.024892 -0.015623 -0.062206 111 85 48
0.018123 -0.016191 -0.060936 126 96 56
0.0043587 -0.013013 -0.026665 87 65 35
0.035931 -0.010022 -0.059196 124 92 50
-0.003414 -0.012107 -0.023637 128 98 58
0.0072273 -0.0069026 -0.029893 83 56 24
0.0083067 -0.0054187 -0.026486 104 80 44
0.069169 0.0047319 -0.059862 62 42 19
0.073339 0.008033 -0.058783 64 47 26
0.069002 0.007072 -0.05967 64 47 26
0.057586 0.0074398 -0.061927 121 92 57
0.0051476 0.006214 -0.032149 80 62 33
0.067867 0.023025 -0.061384 63 41 10
0.070061 0.027078 -0.065183 252 206 142
0.068774 0.028977 -0.060876 58 38 18
0.0070676 0.029659 -0.03257 106 88 58
0.069895 0.037624 -0.062594 88 63 35
0.069574 0.041222 -0.062793 98 77 50
0.053491 0.046408 -0.063313 124 96 58
0.002746 0.04867 -0.026761 107 93 69
0.00037483 0.048407 -0.027317 107 93 69
0.072492 0.053896 -0.060478 124 107 83
0.070837 0.054864 -0.058019 116 86 58
0.062929 0.056808 -0.065868 83 61 32
0.048085 0.058994 -0.061519 113 83 47
-0.015114 0.060127 -0.024434 114 92 48
0.057676 0.06212 -0.058212 98 73 44
0.0056753 0.061213 -0.044289 124 103 65
0.019075 0.06182 -0.060369 214 190 146
0.026882 0.062076 -0.060533 215 190 149
0.026882 0.062076 -0.060533 215 190 149
0.0056737 0.063698 -0.029126 121 96 56
0.042551 0.071968 -0.057111 88 63 37
0.043946 0.072071 -0.061845 91 66 40
0.040771 0.072303 -0.070289 100 72 40
0.0031367 0.074332 -0.030157 160 136 90
-0.019043 0.073771 -0.031335 93 71 37
-0.012307 0.07534 -0.03256 90 66 26
0.054203 0.077662 -0.063719 102 79 45
0.054203 0.077662 -0.063719 102 79 45
0.053542 0.079173 -0.061148 120 97 55
0.038693 0.079297 -0.061874 127 101 64
0.056639 0.079739 -0.065083 121 94 56
0.0035921 0.081377 -0.032063 127 105 63
0.0047386 0.081581 -0.042583 82 64 38
0.0015212 0.081216 -0.043694 95 75 48
-0.0028728 0.080689 -0.060215 127 102 61
0.038715 0.083609 -0.065671 91 68 41
0.049122 0.083852 -0.06204 91 68 41
0.050892 0.083882 -0.064678 128 103 64
0.052057 0.084198 -0.066975 126 98 57
-0.020601 0.08595 -0.03339 113 92 55
0.0030959 0.087013 -0.051776 62 39 12
0.0076834 0.088515 -0.057083 120 94 60
-0.020941 0.089984 -0.032854 103 83 45
0.047161 0.090757 -0.067719 132 102 62
0.045069 0.091571 -0.059833 121 92 47
0.040423 0.09124 -0.065861 131 106 65
0.046606 0.09244 -0.073846 159 129 84
0.03693 0.095207 -0.064719 142 115 76
0.040026 0.099583 -0.082009 96 80 63
0.036937 0.10176 -0.078179 93 75 57
0.03632 0.10343 -0.074409 98 83 65
0.036425 0.10416 -0.068522 110 86 50
0.0061312 0.10936 -0.049824 105 78 42
0.0093453 0.11046 -0.053121 136 109 65
0.0093453 0.11046 -0.053121 136 109 65
0.076399 -0.038677 -0.057309 75 55 36
0.052105 -0.038921 -0.037096 134 108 73
0.017888 -0.035615 -0.024264 83 66 42
0.028039 -0.034475 -0.034874 166 138 97
0.052695 -0.028185 -0.033665 87 61 33
0.076461 -0.025497 -0.062821 120 96 64
0.020275 -0.030016 -0.0268 86 66 38
0.076337 -0.021656 -0.060634 120 98 62
0.046643 -0.023625 -0.033544 93 71 40
0.05363 -0.0228 -0.040964 84 61 37
0.050902 -0.021936 -0.039298 80 55 31
0.010874 -0.027085 -0.035286 139 111 69
0.073047 -0.016401 -0.056314 143 119 87
0.07104 -0.014401 -0.056312 117 94 62
0.073349 -0.014045 -0.05944 132 107 79
0.048965 -0.016522 -0.037448 128 97 60
-0.032308 -0.028893 -0.02349 135 114 81
0.016475 -0.017618 -0.054727 59 38 17
0.0090394 -0.015216 -0.03173 177 154 116
0.0056858 -0.012937 -0.032804 53 36 14
0.00069042 -0.010466 -0.036116 98 70 32
0.0029836 -0.0075929 -0.033255 84 58 33
0.0048846 -0.007265 -0.032754 84 58 33
0.033897 0.0054244 -0.058417 241 192 126
0.030459 0.0066478 -0.065195 91 68 44
0.013855 0.0051231 -0.062477 77 40 2
0.033642 0.010831 -0.058949 251 203 135
0.0018783 0.025431 -0.036793 75 53 31
0.0031913 0.051409 -0.027226 103 84 50
0.074049 0.055418 -0.062415 126 111 78
-0.010608 0.055245 -0.060012 123 110 87
0.03982 0.058482 -0.060629 99 71 40
0.062557 0.059719 -0.066171 107 83 60
0.062557 0.059719 -0.066171 107 83 60
0.062894 0.063472 -0.062588 239 207 172
0.0098695 0.06227 -0.052044 94 70 42
0.041469 0.064821 -0.060862 159 132 100
0.050837 0.067369 -0.062165 128 100 65
0.062127 0.069295 -0.069514 124 103 71
0.0064713 0.069193 -0.051024 106 80 45
0.0064713 0.069193 -0.051024 106 80 45
-0.0037215 0.072334 -0.02543 87 66 34
-0.0067535 0.072724 -0.059048 122 93 57
0.0077926 0.075701 -0.056722 119 92 60
0.0044069 0.079977 -0.035082 101 78 38
0.0053692 0.082445 -0.055424 108 83 50
-0.024067 0.087202 -0.03195 98 76 42
0.003433 0.086791 -0.055991 62 40 14
0.0033279 0.086609 -0.05619 97 76 37
0.020321 0.089356 -0.060115 140 120 83
0.0054752 0.093337 -0.045041 78 55 25
0.0056023 0.10053 -0.036211 113 91 51
0.052147 -0.038276 -0.041721 79 55 29
0.052349 -0.035869 -0.043241 123 97 60
0.0028755 -0.042444 -0.026782 146 116 67
0.0068554 -0.030614 -0.024215 63 38 12
0.069476 -0.017003 -0.052279 100 69 35
0.0032867 -0.022971 -0.023521 116 90 55
0.0032867 -0.022971 -0.023521 116 90 55
0.030766 -0.017721 -0.042045 142 112 72
-0.0032532 -0.020488 -0.0266 127 102 63
-0.00090915 0.045395 -0.024823 130 104 62
-0.00079186 0.048567 -0.021559 71 64 51
0.058143 0.053046 -0.081069 228 185 130
0.062019 0.057212 -0.061159 114 87 57
0.062019 0.057212 -0.061159 114 87 57
-0.004272 0.057881 -0.020497 176 148 91
0.052668 0.058942 -0.077479 220 175 128
0.0040368 0.062264 -0.025335 119 95 55
0.0081347 0.062817 -0.024896 119 95 55
0.0061987 0.061563 -0.048231 111 85 51
-0.0057982 0.061219 -0.061772 156 129 83
0.050191 0.070006 -0.077456 129 109 74
0.047549 0.071937 -0.063619 95 68 37
-0.010064 0.070332 -0.062305 121 93 55
0.0044761 0.072259 -0.043917 105 79 46
0.051303 0.075776 -0.067457 85 67 46
0.030333 0.079072 -0.058878 144 118 78
0.0025173 0.082631 -0.034375 131 106 64
0.0033031 0.086092 -0.037301 120 94 55
0.0069887 0.098118 -0.047103 105 80 40
0.0080514 0.1011 -0.044787 125 101 58
0.0050368 0.10341 -0.038337 200 171 109
0.036547 0.1067 -0.066149 89 72 53
0.073632 -0.031329 -0.051587 108 81 53
0.018341 -0.038808 -0.023108 152 123 76
0.073196 -0.02664 -0.051882 144 111 74
-0.0075741 -0.039388 -0.020073 70 55 31
0.0061296 0.01247 -0.025125 66 47 12
0.01194 0.019752 -0.064173 122 84 33
0.0016318 0.050813 -0.024467 61 47 24
0.063049 0.061083 -0.060847 179 147 99
0.0044211 0.062586 -0.032549 74 56 27
0.050659 0.074487 -0.073794 112 93 65
-0.01156 0.080706 -0.031294 108 85 48
0.0060201 0.094402 -0.054952 90 69 42
0.0039334 0.0989 -0.031425 112 91 56
0.038555 0.097118 -0.078153 127 99 62
0.041817 -0.043796 -0.051878 91 67 41
0.063397 -0.038139 -0.051664 118 88 51
0.075737 -0.036324 -0.061398 132 109 72
0.06406 -0.027336 -0.061699 112 84 58
0.060739 -0.013696 -0.052985 150 115 76
0.017045 -0.017006 -0.041586 104 76 46
0.06561 0.057558 -0.057498 137 109 71
0.060389 0.056829 -0.058528 137 109 71
0.048807 0.07643 -0.060004 112 82 42
-0.018747 0.084964 -0.029902 93 71 39
-0.016314 0.088401 -0.033842 120 100 62
0.021459 0.090424 -0.061019 126 110 85
0.0055159 0.10405 -0.056548 62 45 24
0.038096 -0.038274 -0.036173 152 122 84
0.014296 -0.019542 -0.036731 138 109 67
0.0067772 -0.014254 -0.040852 202 181 143
0.05941 -0.0010318 -0.06793 111 87 58
0.05958 0.0070616 -0.067668 129 104 73
0.061473 0.052185 -0.065089 122 97 60
0.061299 0.055313 -0.074649 253 206 143
0.0039812 0.057669 -0.030446 146 122 73
-0.0077405 0.07606 -0.025125 118 99 62
0.0023898 0.077799 -0.041387 124 96 60
0.0021099 0.089607 -0.044607 63 46 22
-0.0033099 0.097827 -0.02774 67 49 20
0.0027747 -0.031936 -0.030628 106 88 63
0.014589 -0.029264 -0.02751 106 88 63
0.0072277 0.077974 -0.040499 69 48 23
-0.010787 0.088894 -0.025644 59 46 30
0.033589 0.10231 -0.068711 162 135 93
0.055918 -0.036406 -0.053068 105 78 49
0.072901 -0.023666 -0.057321 112 86 50
0.053614 -0.022303 -0.045225 117 90 58
0.044858 -0.024321 -0.04802 117 90 58
0.034041 -0.034564 -0.035511 136 109 70
0.056112 0.080506 -0.077543 215 179 134
0.0065285 0.091702 -0.048975 82 60 36
-0.0046686 0.10547 -0.035616 167 140 78
0.074598 0.0077914 -0.077438 160 122 76
0.028658 0.025608 -0.06624 69 41 16
0.07566 -0.037633 -0.06013 113 91 59
0.050746 -0.032585 -0.036049 151 128 90
0.07736 -0.027328 -0.053546 118 97 63
0.021087 -0.032763 -0.02155 67 50 26
0.077408 -0.01821 -0.053051 126 100 61
0.02715 -0.011244 -0.046434 139 112 69
0.0081302 -0.012102 -0.028237 118 96 68
0.072934 0.018691 -0.059335 73 55 27
0.069065 0.019083 -0.061992 78 56 36
0.0033392 0.0264 -0.032609 74 58 29
0.0056285 0.049035 -0.026666 84 67 41
0.0046231 0.054139 -0.036875 166 132 75
0.065473 0.060858 -0.061961 105 76 46
0.0050005 0.06766 -0.031189 109 83 45
0.046128 0.074265 -0.061239 113 89 57
0.0073049 0.07474 -0.036137 107 84 49
0.0061202 0.073376 -0.05492 139 113 69
0.0045886 0.084074 -0.036537 99 75 36
0.0069085 0.085776 -0.048396 131 104 71
0.0089769 0.091748 -0.034467 93 71 39
0.008474 0.092037 -0.036274 115 94 60
0.044729 0.09246 -0.074201 161 132 87
0.040301 0.093956 -0.070101 132 102 62
0.039437 0.095365 -0.064666 132 108 70
0.019954 -0.034619 -0.019509 126 106 74
0.047936 -0.013841 -0.037112 141 118 80
0.014598 -0.015768 -0.025937 125 102 64
0.0039441 0.078817 -0.031229 103 79 45
0.0065218 0.098795 -0.047005 115 92 55
0.01175 -0.017011 -0.023238 67 50 27
0.0084415 0.067815 -0.027772 109 86 48
0.0034274 0.081708 -0.027414 124 98 54
0.0054 0.058031 -0.038986 177 143 86
0.042917 0.090651 -0.08261 125 111 90
0.0093126 0.10722 -0.041514 118 92 53
0.077013 -0.027625 -0.062114 148 123 88
0.074549 -0.024495 -0.058026 135 108 75
0.00090134 0.014131 -0.037743 71 41 3
0.030938 0.0966 -0.084084 131 102 63
0.030938 0.0966 -0.084084 131 102 63
0.054732 -0.020001 -0.045195 103 75 41
0.0020397 0.067867 -0.021944 137 108 59
0.01405 -0.030324 0.015112 43 39 32
0.0010888 0.038883 -0.02874 76 50 13
0.0023278 0.084756 -0.019677 115 94 55
0.005651 0.085611 -0.055896 67 46 23
-0.0011993 0.08415 -0.053678 67 46 23
0.078566 -0.030752 -0.077459 169 138 102
0.077289 -0.022379 -0.064477 211 177 137
0.010926 -0.038356 -0.11372 51 39 34
0.05339 -0.023988 -0.032198 108 79 44
0.049569 -0.022656 -0.033217 106 80 45
0.020689 -0.02116 -0.021031 96 72 37
0.0036744 -0.012058 -0.03787 98 70 36
0.0091285 -0.010417 -0.030318 58 37 12
0.0060719 0.018658 -0.03546 120 94 59
0.0074322 0.023254 -0.032319 58 39 14
0.0027875 0.04473 -0.036357 62 46 17
0.0070966 0.060043 -0.03517 131 109 73
0.046516 0.090708 -0.072163 136 107 64
0.076304 -0.028136 -0.048165 107 80 47
0.021232 -0.023271 -0.019179 128 104 63
0.072719 -0.013468 -0.055812 96 74 44
-0.016162 -0.027328 -0.091156 246 215 172
0.14342 0.0018518 -0.079843 237 207 172
0.0012729 0.09175 -0.026923 100 82 53
0.0071305 0.11164 -0.037123 56 43 28
0.076955 -0.030225 -0.051486 113 91 60
0.076322 -0.026294 -0.051331 107 82 54
0.063747 -0.013923 -0.049989 116 87 47
0.0071693 -0.0067367 -0.032617 92 65 36
0.0074305 0.062733 -0.024925 123 101 58
0.0071599 0.086377 -0.03674 128 101 63
0.0088803 0.09879 -0.030675 112 88 50
0.0088803 0.09879 -0.030675 112 88 50
0.0059249 -0.010073 -0.021413 213 194 162
0.05429 -0.034928 -0.03339 87 66 41
0.05429 -0.034928 -0.03339 87 66 41
0.0038013 0.04199 -0.027431 132 113 78
0.0042676 0.078069 -0.040409 72 54 26
0.0048767 0.10622 -0.034696 167 139 79
-0.00079401 0.11428 -0.054111 127 104 65
0.0043502 -0.0090831 -0.013081 225 186 118
0.077542 -0.037179 -0.070819 93 69 40
0.077283 -0.01811 -0.05313 130 109 68
0.073381 -0.011435 -0.057518 90 67 27
0.008903 -0.012099 -0.028294 104 82 53
0.0057232 -0.012752 -0.069868 140 109 76
-0.0046008 -0.015091 -0.075634 201 182 161
-0.0046008 -0.015091 -0.075634 201 182 161
0.0075019 -0.011601 -0.025817 46 36 23
0.001646 -0.0067791 -0.07228 165 132 93
0.0023477 0.00028803 -0.070667 91 64 34
0.0076825 0.0068079 -0.032012 95 73 39
0.077862 0.054686 -0.069434 108 85 54
0.065547 0.060813 -0.062055 141 109 74
0.056307 0.077911 -0.063678 126 102 67
0.058079 0.079707 -0.065203 121 96 56
0.058079 0.079707 -0.065203 121 96 56
0.0068943 0.084425 -0.038584 126 105 65
0.006746 0.10069 -0.027287 164 143 96
0.037753 0.10671 -0.063639 105 86 53
0.0021792 0.11838 -0.057797 121 95 59
0.03384 -0.026004 -0.015335 44 37 33
0.074741 -0.01537 -0.055642 140 117 90
-0.016757 -0.031244 -0.088852 229 198 162
-0.013803 -0.02885 -0.086581 194 177 159
-0.00057641 -0.011173 -0.073525 140 120 100
0.074686 0.055717 -0.061832 123 106 69
0.0069502 0.080117 -0.034766 114 89 52
0.0096381 0.10084 -0.035595 138 117 74
0.078055 -0.026503 -0.06952 129 100 73
0.077904 -0.017405 -0.065651 163 132 98
-0.011731 -0.024486 -0.083619 247 212 169
0.016389 -0.013641 -0.030891 177 155 120
0.0067091 0.06776 -0.027602 120 98 58
0.055196 0.075977 -0.067073 79 56 27
0.051567 0.077342 -0.0594 116 94 63
0.0056278 0.089198 -0.03414 84 64 32
0.0030607 0.10391 -0.028768 148 129 88
-0.017285 0.1013 -0.085954 171 147 118
0.073702 -0.033708 -0.044408 112 89 55
0.072439 0.019985 -0.065863 75 48 16
0.010358 0.10675 -0.041672 134 108 68
0.075875 -0.034803 -0.048835 98 76 43
0.073521 -0.026915 -0.073761 177 147 111
0.077285 -0.023729 -0.057676 135 113 80
0.069487 -0.021133 -0.069405 186 157 122
-0.014645 0.091942 -0.083546 190 170 143
-0.013392 0.097683 -0.085266 157 139 108
-0.013392 0.097683 -0.085266 157 139 108
0.073243 -0.011166 -0.064436 204 172 130
0.0068791 0.08825 -0.025716 105 85 54
0.027511 -0.02741 -0.079896 199 166 130
-0.0045601 0.0084617 0.00039211 183 157 97
0.077652 -0.033455 -0.078311 166 136 96
0.078178 -0.031098 -0.075357 152 124 89
0.079031 -0.03061 -0.077718 181 149 112
0.077986 -0.025919 -0.073407 167 137 108
0.077061 -0.013035 -0.060134 96 72 39
0.036952 -0.014018 -0.067349 199 162 118
-0.0040559 -0.019266 -0.077431 221 182 140
0.00012526 -0.013442 -0.072312 129 103 63
0.04062 -0.0047967 -0.064505 167 135 91
0.0077547 0.012672 -0.067204 121 86 36
0.0077547 0.012672 -0.067204 121 86 36
0.039884 0.017719 -0.065001 182 155 114
0.0023518 0.017511 -0.070197 118 86 44
0.0018165 0.026076 -0.069259 120 88 47
0.076153 0.056023 -0.066825 153 131 98
-0.0051273 0.068851 -0.072835 126 102 62
0.0022827 0.074495 -0.071048 210 173 126
0.0022827 0.074495 -0.071048 210 173 126
-0.0092644 0.082757 -0.068495 182 144 95
0.0016307 0.082792 -0.070937 152 124 92
-0.0080199 0.082751 -0.073046 161 132 99
0.053543 0.088256 -0.072438 110 88 55
0.045714 -0.023204 -0.075833 216 178 134
-0.016826 -0.034978 -0.091772 218 192 168
0.034521 -0.022562 -0.076704 192 155 117
-0.012909 -0.0287 -0.086751 219 197 177
0.0045495 0.0033956 -0.06894 117 89 53
0.011455 0.071989 -0.07206 211 181 140
0.053842 0.076053 -0.066771 75 53 27
0.052311 0.086804 -0.074174 97 75 55
-0.00972 0.088645 -0.080237 106 84 53
0.040892 0.093758 -0.062871 150 125 86
0.04043 0.10528 -0.068177 110 91 61
0.078353 -0.038858 -0.069433 53 37 23
0.073994 -0.036665 -0.080478 172 144 105
0.062636 -0.037223 -0.085866 60 40 27
0.0067265 -0.047022 -0.081079 45 33 28
-0.010792 -0.021944 -0.080377 211 187 163
0.029833 -0.012118 -0.069504 220 184 138
0.029833 -0.012118 -0.069504 220 184 138
-0.0085031 -0.017671 -0.07763 205 166 122
0.0058035 0.029207 -0.065563 66 42 18
0.068962 0.042863 -0.07003 65 41 19
0.052794 0.087141 -0.06318 150 127 85
0.011358 0.10721 -0.041666 141 118 72
-0.012567 -0.024421 -0.083808 255 218 164
0.017663 0.057482 -0.071668 115 86 52
0.017663 0.057482 -0.071668 115 86 52
0.0021834 0.057662 -0.072154 229 196 149
0.006751 0.091583 -0.026804 104 86 48
0.077215 -0.03574 -0.061278 124 102 67
-0.0018092 0.082504 -0.07602 155 132 101
0.058403 -0.01457 -0.068203 225 192 146
-0.084811 -0.0098126 0.024467 200 158 94
0.0056176 0.099008 -0.084321 163 142 105
0.0087815 0.084936 -0.020791 130 104 59
0.0032618 0.11414 -0.054548 126 102 67
0.032368 -0.025457 -0.081096 196 164 124
-0.18948 -0.092073 0.080555 139 112 73
0.058508 -0.034954 -0.085656 179 146 105
0.039105 -0.037405 -0.088075 146 115 83
0.076815 -0.027794 -0.063348 110 90 60
0.013296 -0.038063 -0.089722 185 150 107
0.005582 -0.038093 -0.090278 216 178 128
0.059961 -0.026629 -0.075699 166 136 97
-0.0013627 -0.037596 -0.091582 224 186 138
0.01976 -0.032109 -0.084782 230 190 141
0.022865 -0.027844 -0.079733 204 171 133
0.074071 -0.014184 -0.063909 179 145 104
0.007779 -0.013064 -0.066367 96 62 32
0.041109 -0.0039241 -0.062781 122 88 45
0.0079638 0.0075656 -0.065356 100 67 33
0.040769 0.025906 -0.064135 79 54 28
0.0064621 0.032068 -0.066885 128 98 60
0.00070989 0.033771 -0.068977 146 114 68
0.0018476 0.047196 -0.069179 111 83 49
0.077614 0.054721 -0.069364 151 130 87
0.0050852 0.049439 -0.068419 73 52 27
-0.0029526 0.054115 -0.072441 216 187 147
0.042063 0.059229 -0.070638 165 133 92
0.063772 0.061389 -0.070662 181 154 109
0.024209 0.062856 -0.069665 209 175 132
0.022763 0.080997 -0.069242 160 139 111
0.051073 0.082254 -0.071549 109 83 56
0.051073 0.082254 -0.071549 109 83 56
0.018253 0.08256 -0.069587 65 42 14
0.018253 0.08256 -0.069587 65 42 14
0.018797 0.084712 -0.070664 182 155 122
0.018797 0.084712 -0.070664 182 155 122
0.012638 0.084759 -0.072457 185 157 121
0.048882 0.088463 -0.07495 52 35 14
0.048882 0.088463 -0.07495 52 35 14
-0.013651 0.092019 -0.079651 183 154 122
-0.010808 0.091853 -0.083223 88 72 59
0.038757 0.093375 -0.078293 92 76 49
0.03929 0.094794 -0.083992 134 118 92
0.0089146 0.10053 -0.02824 170 150 106
0.039769 0.10592 -0.070624 122 103 67
0.008445 0.10761 -0.068895 133 110 74
0.0054525 0.11103 -0.031665 108 88 55
-0.0018479 0.11217 -0.066287 94 67 35
0.075705 -0.029207 -0.077667 188 157 113
0.016829 -0.028616 -0.084247 197 163 127
0.042926 -0.023591 -0.074984 201 163 114
0.077004 -0.012987 -0.060111 79 55 31
0.039953 -0.013631 -0.064372 93 67 42
0.035734 0.071069 -0.071814 141 113 71
0.035734 0.071069 -0.071814 141 113 71
-0.0012028 0.071858 -0.072991 213 180 136
0.034857 0.074057 -0.07029 187 153 110
0.0074732 0.080614 -0.070795 171 138 103
0.054491 0.084492 -0.066273 125 104 64
0.052334 0.086888 -0.074186 80 63 43
0.043634 0.09351 -0.063991 147 123 84
0.020861 0.096808 -0.086544 144 124 87
0.036299 0.099893 -0.08404 152 130 97
0.039394 0.10419 -0.0744 138 121 85
0.065151 -0.030006 -0.081035 195 161 117
0.077613 -0.026432 -0.069849 116 88 57
0.075849 -0.022999 -0.053096 120 104 68
0.048421 -0.014861 -0.069464 222 190 146
0.00027465 -0.00024175 -0.069931 184 155 123
0.035128 0.043661 -0.041782 104 82 49
0.064367 0.068918 -0.07259 88 65 36
0.066334 0.070368 -0.068176 155 138 104
0.060243 0.071377 -0.073476 154 126 91
0.048686 -0.036491 -0.087121 181 145 110
0.055408 -0.025103 -0.029669 122 97 57
0.042153 -0.01591 -0.071549 220 183 132
-0.0052702 0.061827 -0.072591 220 194 156
0.0086664 0.079975 -0.069944 126 96 61
0.0086664 0.079975 -0.069944 126 96 61
0.043375 0.087839 -0.076389 90 70 47
0.043394 0.092412 -0.076752 79 61 32
0.071803 -0.020097 -0.069881 172 142 106
0.053631 0.076054 -0.067731 91 66 29
-0.015266 0.091788 -0.0834 69 55 43
0.11304 0.023291 -0.086405 66 41 11
0.04674 0.062425 -0.069353 190 157 107
-0.0038186 0.081776 -0.08048 192 152 104
0.063646 0.0070312 -0.034115 215 186 123
-0.027306 -0.0077769 0.087144 47 40 29
0.044806 -0.0074887 -0.066963 179 146 98
0.012108 -0.012304 -0.065001 156 122 78
0.0094727 -0.0049344 -0.068382 149 120 75
0.10123 0.062131 -0.068246 154 125 77
-0.052075 0.0067113 0.043687 115 79 45
0.013849 0.029322 -0.066124 167 134 86
0.048695 0.055326 -0.070416 106 75 40
0.058023 0.087797 -0.074966 125 99 65
0.0080808 0.089121 -0.075803 137 117 81
0.095681 -0.029382 -0.052552 231 204 158
0.050066 -0.028032 -0.085444 56 40 25
0.013342 0.024278 -0.067873 158 126 82
0.045289 0.041323 -0.068481 136 112 66
0.081858 -0.030354 -0.076781 151 124 86
0.064531 -0.022322 -0.078791 73 52 29
0.076915 -0.010484 -0.066859 196 168 129
-0.010292 0.077818 -0.080468 108 83 54
0.013925 0.065941 -0.070276 190 158 117
-0.018165 -0.035319 -0.07619 254 218 161
-0.018081 -0.032764 -0.089659 249 214 158
-0.012891 -0.035579 -0.076132 60 37 14
-0.018967 -0.03491 -0.072429 255 231 167
0.023188 -0.041532 -0.079969 203 170 114
-0.016876 -0.031988 -0.086011 251 212 152
-0.013625 -0.033345 -0.083381 120 91 49
-0.021213 -0.037414 -0.041723 255 223 161
0.018295 -0.039085 -0.08157 219 192 143
-0.02297 -0.033304 -0.063024 255 241 180
-0.01485 -0.032869 -0.074349 254 216 157
-0.017401 -0.030193 -0.084247 255 221 161
-0.017913 -0.030404 -0.081826 255 218 157
0.031008 -0.039423 -0.083678 205 172 117
-0.008026 -0.030857 -0.08333 140 111 72
-0.010326 -0.02942 -0.082753 125 94 52
-0.014738 -0.027293 -0.076939 252 217 157
-0.014894 -0.030659 -0.048519 255 220 159
-0.011169 -0.02639 -0.076036 238 199 144
-0.017466 -0.032368 -0.016888 44 31 26
0.038996 -0.034661 -0.072668 189 153 96
-0.011497 -0.027262 -0.032154 239 193 144
-0.010472 -0.028207 -0.023103 248 202 146
-0.010937 -0.021467 -0.058848 255 219 154
-0.0083894 -0.022653 -0.051742 255 217 155
0.045999 -0.028391 -0.066278 248 208 138
0.056354 -0.027715 -0.076354 187 163 114
-0.009199 -0.021687 -0.031329 242 200 150
0.065633 -0.027415 -0.07216 148 123 81
-0.0056248 -0.01917 -0.035802 247 200 141
0.053217 -0.021537 -0.068301 187 160 113
0.054193 -0.021917 -0.067276 220 184 121
0.03875 -0.019589 -0.061184 225 189 126
-0.0014893 -0.010532 -0.067475 239 195 126
-0.0014893 -0.010532 -0.067475 239 195 126
-0.0017542 -0.010018 -0.064742 183 141 78
-0.0019997 -0.011228 -0.031916 255 222 157
0.029784 -0.010695 -0.064411 249 202 127
0.038276 -0.01366 -0.0518 225 186 119
0.0074322 -0.010992 -0.021988 127 93 54
0.063918 -0.0094275 -0.059222 225 186 118
0.0647 -0.0095138 -0.058643 225 186 118
0.032304 -0.0021393 -0.062909 251 203 133
0.036584 0.0017876 -0.063303 161 140 114
0.031502 0.0022867 -0.063532 254 210 133
0.015009 0.0067404 -0.057114 242 205 140
-0.00074515 0.010226 -0.062627 211 180 131
0.048266 0.0043585 -0.056879 255 214 138
0.064518 0.0027921 -0.05932 236 198 129
0.048604 0.0089477 -0.056682 237 193 110
0.015311 0.023185 -0.057185 255 246 191
-0.14378 0.054004 -0.18991 255 213 150
0.0063739 0.028028 -0.065219 140 101 62
0.049244 0.025628 -0.056287 255 235 151
0.0012259 0.042252 -0.037178 255 240 163
0.049053 0.041329 -0.056503 255 243 163
0.050203 0.044837 -0.055808 255 231 151
0.0074375 0.050423 -0.065184 255 224 147
0.044871 0.048259 -0.056466 254 251 180
-0.0038003 0.053676 -0.065755 219 186 128
0.01681 0.052777 -0.058336 255 255 187
-0.0052948 0.057867 -0.039841 255 213 152
-0.005303 0.061054 -0.067638 242 202 129
0.0077265 0.060411 -0.038188 244 197 136
-0.00058496 0.061321 -0.041489 255 212 144
-0.0027716 0.062749 -0.068028 230 190 124
0.0072322 0.06133 -0.017072 229 195 152
6.9062e-05 0.064613 -0.046566 229 187 123
0.028932 0.064231 -0.055678 250 211 148
-0.0046654 0.069268 -0.020753 237 199 141
0.058961 0.066038 -0.067772 100 77 45
-0.0010653 0.069216 -0.054848 222 180 119
-0.005457 0.072634 -0.069547 223 185 120
-0.004771 0.072576 -0.049372 241 203 144
-0.0017433 0.072218 -0.041109 187 146 94
-0.0058673 0.07546 -0.053347 237 200 139
-0.0017095 0.07624 -0.038716 127 85 60
0.054671 0.078299 -0.057916 239 206 144
0.029072 0.081072 -0.067848 143 110 65
-0.0028389 0.082115 -0.067017 233 198 141
-0.0034747 0.083362 -0.037677 147 107 58
0.011541 0.082871 -0.06067 255 218 154
0.028868 0.082662 -0.065028 229 195 137
-0.0053556 0.085274 -0.028967 173 148 116
-0.0054415 0.084944 -0.066633 195 165 114
-0.0023966 0.085138 -0.038568 217 180 128
-0.0052931 0.085379 -0.037213 221 180 123
-0.0050122 0.085545 -0.053048 201 164 110
-0.0019723 0.085342 -0.041651 231 192 136
-0.0019723 0.085342 -0.041651 231 192 136
0.042559 0.083552 -0.067357 255 228 153
0.044857 0.08376 -0.060274 255 240 172
0.034149 0.084099 -0.058778 235 206 146
0.001408 0.085057 -0.070604 179 149 100
0.068119 0.085936 -0.060947 245 219 156
0.049375 0.087701 -0.071393 255 252 181
0.054016 0.089863 -0.06742 255 243 173
0.054016 0.089863 -0.06742 255 243 173
0.031739 0.090261 -0.076162 85 65 34
-0.0115 0.091828 -0.076877 198 169 116
-0.0035241 0.096378 -0.035666 195 155 100
0.00911 0.095785 -0.073973 255 236 168
-0.004497 0.099647 -0.024753 197 169 133
-0.0042279 0.099785 -0.082775 205 182 128
0.017497 0.10165 -0.0661 46 35 31
-0.0056595 0.10373 -0.029425 112 95 75
-0.020021 0.10655 -0.073745 216 185 123
-0.012926 0.10777 -0.050352 160 134 101
-0.016118 0.107 -0.065837 178 149 97
0.010255 0.11069 -0.060489 152 126 80
-0.001651 0.11329 -0.060303 156 131 90
-0.0052153 -0.038457 -0.088902 255 244 169
0.0074587 -0.034842 -0.088364 236 204 149
0.0045507 -0.031641 -0.082325 245 213 151
-0.014241 -0.027321 -0.082945 250 215 155
-0.01626 -0.028866 -0.064901 254 213 153
-0.014741 -0.029028 -0.036014 255 226 176
-0.0069377 -0.031768 -0.020796 145 110 66
0.040442 -0.030449 -0.0793 216 184 122
-0.0087776 -0.024963 -0.043684 243 195 129
-0.013183 -0.020552 -0.069053 246 205 147
-0.0096144 -0.021691 -0.066275 246 205 147
0.047897 -0.030306 -0.078256 204 176 117
-0.0065111 -0.018868 -0.042527 229 183 125
-7.3158e-05 -0.016406 -0.071408 255 227 161
0.0038645 -0.010724 -0.066208 255 219 147
-0.0011686 -0.0076429 -0.067854 254 215 148
-0.002201 -0.0073 -0.068307 254 215 148
0.0014799 0.00030999 -0.048632 221 181 131
0.064845 -0.011064 -0.054902 255 226 159
0.047561 -0.0012568 -0.056814 243 207 137
-0.014812 0.019254 -0.041238 242 198 131
0.049227 0.021367 -0.056259 255 224 145
-0.074096 0.054826 -0.10922 198 160 113
-0.0028661 0.055039 -0.038242 248 209 148
0.029124 0.054617 -0.066189 133 101 48
0.059114 0.053777 -0.070649 132 111 57
0.020289 0.056092 -0.058269 255 232 155
0.026435 0.057427 -0.068916 213 178 112
