ply
format ascii 1.0
comment PCL generated
element vertex 530
property float x
property float y
property float z
property uchar red
property uchar green
property uchar blue
element camera 1
property float view_px
property float view_py
property float view_pz
property float x_axisx
property float x_axisy
property float x_axisz
property float y_axisx
property float y_axisy
property float y_axisz
property float z_axisx
property float z_axisy
property float z_axisz
property float focal
property float scalex
property float scaley
property float centerx
property float centery
property int viewportx
property int viewporty
property float k1
property float k2
end_header
0.040687 -0.030802 0.085452 50 38 36
0.01021 -0.034652 0.0018421 61 54 51
0.012088 -0.030061 0.016637 57 50 47
0.013489 -0.026644 0.027669 52 45 43
0.0037651 -0.03418 -0.018418 130 107 73
-0.0039983 -0.031628 -0.021962 103 83 49
0.032565 -0.035515 -0.032181 148 122 88
0.0050236 -0.031269 -0.022027 105 84 54
-0.011104 -0.029437 -0.016853 127 111 74
0.043399 -0.032592 -0.032213 147 119 80
-0.026884 -0.010654 -0.00058981 63 53 37
0.028309 -0.031581 -0.032806 120 92 56
-0.0090415 -0.027554 -0.019925 129 108 72
-0.0015233 -0.027408 -0.018622 132 112 79
-0.0015406 -0.02754 -0.018994 132 112 79
0.0020296 -0.026087 -0.019324 94 74 42
0.07261 -0.036088 -0.047338 137 105 70
0.010022 -0.02378 -0.018463 81 58 29
0.011275 -0.021361 -0.018434 142 118 81
0.00080463 -0.020847 -0.018144 122 104 75
0.07268 -0.030213 -0.047325 136 100 61
0.026098 -0.023183 -0.030355 163 135 97
0.020366 -0.019117 -0.018458 171 149 114
0.021353 -0.018331 -0.023321 62 38 16
0.036767 -0.022932 -0.040703 136 111 85
0.035274 0.17314 0.78623 52 46 36
0.043978 -0.020049 -0.030621 72 51 31
0.0073935 -0.013307 -0.017698 146 124 94
0.007445 -0.012942 -0.022776 70 48 25
0.063455 -0.020559 -0.048404 110 77 45
0.058935 -0.017955 -0.044098 117 87 49
0.0072225 -0.0096218 -0.023638 140 114 75
0.068438 -0.016386 -0.054954 134 103 66
0.035512 -0.014013 -0.050077 210 179 144
0.03631 -0.013184 -0.054573 121 90 55
0.069698 -0.012083 -0.053491 135 100 61
0.033425 -0.0096025 -0.054025 159 121 74
0.029555 -0.0088189 -0.056617 182 147 93
0.067286 -0.005544 -0.053964 63 38 15
0.067421 -0.0059344 -0.055718 63 38 15
0.036343 0.004381 -0.055759 68 47 22
0.036304 0.0047362 -0.058518 68 47 22
0.031663 0.0078733 -0.055178 74 47 15
0.031663 0.0078733 -0.055178 74 47 15
0.033277 0.010293 -0.054402 175 140 88
0.036465 0.013939 -0.057876 193 164 119
0.038599 0.016867 -0.058355 147 112 58
0.067769 0.023875 -0.05717 175 138 85
0.036883 0.026445 -0.053889 174 142 98
0.033817 0.029497 -0.055981 172 139 89
0.06804 0.032645 -0.058437 176 136 87
0.06806 0.039393 -0.058618 164 130 82
0.064768 0.041548 -0.059947 163 129 76
0.064869 0.044016 -0.05847 146 112 67
0.036704 0.048954 -0.05685 167 133 90
0.042781 0.050585 -0.062528 179 148 99
0.030812 0.056813 -0.055303 149 124 82
0.034642 0.061388 -0.05492 176 144 98
0.038481 0.061258 -0.055368 174 141 96
0.0074752 0.066482 -0.014562 105 84 55
0.0010065 0.067803 -0.019195 114 95 54
0.046675 0.068593 -0.055676 138 106 69
0.000917 0.073988 -0.02449 164 137 94
0.015136 0.072634 -0.052925 146 119 77
0.013074 0.073773 -0.05524 100 74 40
0.015641 0.077473 -0.05314 147 118 76
0.032859 0.077835 -0.055426 148 118 78
0.019561 0.076636 -0.053949 149 123 79
0.001803 0.082101 -0.024111 129 107 70
0.0084948 0.082793 -0.028235 178 154 108
0.052083 0.083313 -0.056058 164 137 93
0.016756 0.085349 -0.054613 156 125 81
0.047542 0.0856 -0.055627 177 147 105
0.047542 0.0856 -0.055627 177 147 105
0.014563 0.089095 -0.055345 138 110 69
0.014563 0.089095 -0.055345 138 110 69
0.016995 0.091001 -0.055797 142 114 73
0.026285 0.094072 -0.055132 108 84 47
0.028029 0.096241 -0.055098 122 94 58
0.024739 0.095716 -0.054509 153 128 86
-5.5419e-05 0.10016 -0.025821 119 100 59
0.033035 0.10424 -0.056779 150 117 69
0.034819 0.1043 -0.055558 171 140 91
0.0051492 0.10622 -0.031261 192 166 108
0.038687 0.11001 -0.062336 170 145 111
0.030469 0.11299 -0.060937 177 149 109
0.057502 -0.032505 0.053605 55 44 38
0.021572 -0.028579 -0.016821 158 134 92
0.041024 0.099312 0.37021 115 87 52
-0.023416 -0.018404 -0.044492 53 45 34
-0.04132 -0.03345 -0.056839 47 34 27
-0.015629 0.011769 0.16933 48 38 29
0.035771 0.087631 0.32198 143 115 78
0.054046 -0.025753 -0.031329 132 103 65
-0.057486 -0.038476 -0.094436 67 56 48
-0.057486 -0.038476 -0.094436 67 56 48
0.015391 -0.019648 -0.018433 145 124 87
0.039517 -0.023634 -0.032446 139 115 87
0.046133 -0.021528 -0.030787 140 113 72
0.0029967 -0.014355 -0.021096 141 118 83
0.00093923 -0.013073 -0.024109 55 39 23
0.0050698 -0.011028 -0.021009 123 101 65
0.013477 -0.012533 -0.045953 114 88 56
0.03029 -0.013264 -0.050975 195 167 129
0.06909 -0.013299 -0.047753 198 168 127
0.038953 -0.012517 -0.055433 128 98 67
0.065596 -0.011535 -0.054271 106 75 43
0.064253 0.050908 -0.026315 148 111 60
0.031498 -0.0013353 -0.055159 79 53 21
0.033557 0.0030235 -0.054979 156 123 72
0.041687 0.013365 -0.063155 174 137 84
0.038324 0.029184 -0.056935 72 46 23
0.06463 0.030154 -0.058231 151 116 69
0.075234 0.047777 -0.064317 182 147 98
0.032774 0.052692 -0.054937 121 96 57
0.068676 0.051919 -0.056855 85 58 30
0.003648 0.062514 -0.01792 166 148 109
0.026482 0.059554 -0.053726 176 147 100
0.064041 0.060476 -0.057617 71 44 20
0.044985 0.067648 -0.056291 145 116 73
0.0039913 0.070656 -0.01814 168 143 99
0.0037027 0.074556 -0.024992 145 119 78
0.048313 0.07437 -0.056149 162 131 88
0.048313 0.07437 -0.056149 162 131 88
0.023353 0.076759 -0.056108 154 125 80
0.0064014 0.084765 -0.027852 69 47 21
0.02362 0.085256 -0.055728 148 118 75
-0.006544 0.08833 -0.023755 132 113 74
-0.00044679 0.086883 -0.027434 141 120 80
0.028128 0.087366 -0.055511 172 147 105
0.0014313 0.092944 -0.023415 145 122 87
-0.0059065 0.091179 -0.028065 125 106 70
0.037213 0.092371 -0.053691 160 135 90
0.040063 0.090139 -0.055014 158 130 89
0.020177 0.096939 -0.055181 131 107 68
0.00054726 0.10282 -0.027313 180 159 110
0.017627 0.10465 -0.057703 161 131 84
0.01407 0.11171 -0.058647 152 126 83
0.041571 0.10029 0.17306 127 103 61
-0.0063695 0.11793 -0.048929 160 134 92
-0.0031152 0.11847 -0.046546 164 141 100
0.062592 -0.030804 0.06109 57 51 45
0.062592 -0.030804 0.06109 57 51 45
-0.0032712 -0.033172 0.030861 46 38 33
0.0081652 -0.027587 0.024766 65 56 52
-0.0007242 -0.033325 -0.016699 121 100 67
0.054929 -0.035919 -0.033668 167 137 96
0.054929 -0.035919 -0.033668 167 137 96
0.058562 -0.035954 -0.037583 161 133 96
0.058562 -0.035954 -0.037583 161 133 96
-0.044236 -0.034105 -0.052294 71 62 48
0.017118 -0.020936 -0.017422 99 77 45
-9.8381e-06 -0.022431 -0.02396 125 107 75
0.067926 -0.027268 -0.051745 111 77 45
-0.059388 -0.037831 -0.10483 43 33 26
0.046097 -0.015336 -0.030774 90 62 35
0.052982 -0.015353 -0.036027 134 102 63
0.049007 -0.014104 -0.033118 188 158 118
0.025884 -0.014026 -0.059108 206 187 156
-0.0050818 -0.0092484 -0.035163 79 59 34
0.044797 0.039647 0.18998 161 124 85
0.040798 0.0059912 -0.059567 177 142 90
0.029949 0.029948 -0.058502 165 132 84
-0.0007544 0.057081 -0.021124 115 97 59
0.062434 0.05405 -0.055056 61 43 15
-0.0021193 0.0025092 -0.98154 163 147 102
0.04785 0.062434 -0.055494 146 120 79
0.060665 0.073097 -0.058714 165 138 103
0.045216 0.076918 -0.055922 128 96 62
0.032102 0.083433 -0.054809 155 128 87
-0.0041734 0.088632 -0.024835 136 114 70
0.0023269 0.098327 -0.018872 162 145 100
0.029526 0.098998 -0.054257 163 138 94
0.025149 0.10388 -0.057678 176 146 95
0.025149 0.10388 -0.057678 176 146 95
0.035464 0.10421 0.11594 182 156 114
0.02515 0.11072 -0.061451 175 146 95
-0.001381 0.1127 -0.037817 153 129 79
0.0098537 0.11748 -0.04778 167 141 99
-0.006176 0.11793 -0.047594 160 134 92
-0.0033711 -0.033369 0.030246 46 38 33
0.077889 -0.031937 0.020074 66 56 51
0.090829 -0.065958 -0.088309 66 56 51
0.028663 -0.035603 -0.031922 129 99 62
0.03712 0.013493 0.13898 72 52 32
-0.0042424 -0.028256 -0.021441 136 118 79
0.050264 -0.026621 -0.031362 157 128 88
-0.049984 -0.038975 -0.094131 60 53 40
0.0093192 -0.012533 -0.023431 79 58 33
0.028738 0.0047169 -0.060329 99 61 19
0.040731 0.0057672 -0.060702 177 142 90
0.030085 0.044325 -0.059311 185 152 104
0.076948 0.057498 -0.065132 178 150 109
0.019229 0.062489 -0.055853 139 111 69
0.047932 0.062703 -0.053765 152 123 80
0.060057 0.068375 -0.055437 136 103 68
0.008063 0.092522 -0.024177 149 124 80
0.024127 0.099907 -0.054367 154 129 87
0.029515 0.097078 -0.05453 162 135 94
0.025127 0.10617 -0.057732 174 144 90
0.025059 0.10408 -0.057333 174 144 90
0.024985 0.11278 -0.060438 176 146 93
0.0016235 0.11925 -0.050298 156 131 81
0.042737 -0.028292 0.077865 46 39 34
0.062721 -0.033399 -0.04199 163 131 93
0.0060307 -0.022546 -0.019015 132 115 82
0.027548 -0.022726 -0.030766 153 127 90
0.036035 -0.023216 -0.032712 142 117 78
0.063518 0.042718 -0.061309 111 86 49
0.0045853 0.077951 -0.024758 48 37 25
0.037708 -0.034206 -0.029333 130 103 64
0.040495 -0.020552 -0.03911 101 70 49
0.045292 -0.015518 -0.050033 166 142 109
0.065197 0.070239 -0.067496 150 118 77
0.065197 0.070239 -0.067496 150 118 77
0.033692 0.078874 -0.053773 147 115 76
-0.014436 0.11545 -0.043253 164 137 79
0.018598 -0.030945 -0.016804 147 128 87
0.073646 -0.030837 -0.046758 150 115 71
0.036299 0.08775 0.31277 121 102 81
0.061252 -0.020226 -0.04119 126 92 61
0.01635 -0.012393 -0.037426 201 174 131
0.052324 0.085851 -0.069663 177 148 106
0.027988 0.091599 -0.054848 137 107 70
0.036053 0.10577 -0.055449 162 130 84
0.036053 0.10577 -0.055449 162 130 84
0.0044573 0.036513 -0.049013 94 66 28
0.0044573 0.036513 -0.049013 94 66 28
0.069443 0.002689 -0.066436 122 91 53
0.035608 0.018521 -0.066076 135 110 71
0.035608 0.018521 -0.066076 135 110 71
0.035954 0.037973 -0.065834 161 124 82
0.035954 0.037973 -0.065834 161 124 82
0.06936 0.037765 -0.066097 147 116 73
0.069417 0.036791 -0.069161 147 116 73
0.034742 0.058796 -0.054171 175 144 96
0.0042387 0.067921 -0.018169 158 142 100
-0.052983 -0.02564 -0.059691 48 40 33
0.0023244 0.10716 -0.035829 165 140 92
0.0023244 0.10716 -0.035829 165 140 92
0.065723 -0.026765 -0.069345 131 97 61
0.0029124 0.10712 -0.031346 179 152 94
0.0029124 0.10712 -0.031346 179 152 94
0.016252 0.10391 0.080257 140 113 74
-0.008267 -0.036455 -0.029528 64 48 22
0.034891 -0.03762 -0.038109 143 115 78
0.072773 -0.035808 -0.052118 126 94 57
-0.0021229 -0.02651 -0.011891 114 96 62
0.052019 -0.024316 -0.027255 130 100 63
0.060638 -0.031027 -0.054458 139 107 64
0.034997 -0.024956 -0.037722 139 112 76
0.016148 -0.017947 -0.014925 152 126 85
0.036765 -0.021509 -0.041988 94 72 52
0.024614 -0.021918 -0.053243 135 103 64
0.049328 -0.012452 -0.027437 143 108 70
0.044372 -0.015352 -0.040547 187 154 115
0.0028453 -0.010024 -0.016106 120 98 64
0.05446 -0.016317 -0.051321 158 128 86
0.0087765 -0.0068428 -0.017137 106 81 45
0.075077 -0.021997 -0.094215 63 51 42
0.011731 -0.012824 -0.0678 121 94 53
0.07348 -0.0060218 -0.060589 174 140 98
0.073423 -0.011267 -0.085174 175 140 90
0.065077 -0.0085231 -0.074366 129 101 63
0.065077 -0.0085231 -0.074366 129 101 63
0.073341 -0.0060677 -0.085473 172 135 86
0.041082 -0.002936 -0.076574 139 109 78
0.041217 0.0054119 -0.076393 144 119 88
0.070894 0.0048194 -0.082789 141 107 69
0.038407 0.0090292 -0.069752 104 75 46
0.07574 0.010662 -0.067983 172 138 92
0.0070863 0.021132 -0.055408 159 130 85
0.066986 0.020218 -0.073908 150 117 75
0.066986 0.020218 -0.073908 150 117 75
0.069093 0.025219 -0.077613 171 136 88
0.065305 0.030791 -0.074207 105 75 32
0.0085699 0.04633 -0.011149 154 125 80
0.010601 0.056857 -0.014018 62 51 38
0.036359 0.051597 -0.060211 162 130 89
0.0053238 0.052673 -0.070612 76 55 26
0.037702 0.054495 -0.06944 121 96 68
0.075557 0.052959 -0.084744 142 112 70
0.009788 0.062471 -0.013944 151 128 87
0.038687 0.057375 -0.063184 64 44 17
0.042734 0.062579 -0.058628 167 140 101
0.011281 0.063284 -0.049918 98 73 44
0.011593 0.066045 -0.038869 131 109 71
0.016251 0.066074 -0.051494 145 120 81
0.057843 0.065574 -0.054859 142 112 73
0.028741 0.075262 -0.053207 139 109 72
0.065835 0.073693 -0.08376 150 119 84
0.010043 0.078654 -0.02211 107 85 52
0.055705 0.073981 -0.070246 127 108 82
0.057638 0.081463 -0.062601 156 130 95
0.00092099 0.086354 -0.0095196 84 64 38
0.053097 0.087345 -0.053121 167 143 97
0.0089671 0.088561 -0.055224 142 119 84
0.038769 0.087312 -0.053029 152 123 81
0.048778 0.089668 -0.051912 170 141 99
0.048778 0.089668 -0.051912 170 141 99
0.016241 0.093743 -0.048016 132 104 66
0.014878 0.099316 -0.056172 107 83 46
0.040211 0.10304 -0.060219 108 83 48
0.018158 0.10767 -0.049496 138 109 67
0.018158 0.10767 -0.049496 138 109 67
0.011033 0.10964 -0.019165 188 156 95
0.0030783 0.10977 -0.021096 160 136 84
0.029447 0.11032 -0.054097 132 103 58
0.021102 -0.034332 -0.018753 54 37 18
0.071943 -0.043671 -0.068424 146 114 76
0.021492 -0.027461 -0.01765 94 72 44
0.038891 -0.028161 -0.032083 143 117 78
0.028208 -0.028764 -0.031763 115 87 49
0.05478 -0.023683 -0.030045 144 115 78
0.073393 -0.02494 -0.051158 152 117 76
0.049056 -0.021622 -0.042614 132 98 57
0.070007 -0.027873 -0.071462 159 122 81
0.068276 -0.025348 -0.068216 144 107 68
0.04993 -0.018546 -0.046836 135 103 64
0.03927 -0.014771 -0.046338 197 165 126
0.041784 -0.015547 -0.050755 195 167 131
0.010111 -0.0079927 -0.024021 243 220 178
-0.070045 -0.040135 -0.14923 55 48 39
0.065815 -0.010496 -0.058392 137 105 65
0.062396 0.013462 0.030951 48 32 22
0.036868 -0.0026325 -0.065177 146 110 63
0.060105 0.0044344 -0.076486 158 127 96
0.0060903 0.011227 -0.0564 135 104 58
0.037643 0.021796 -0.062967 162 125 74
0.0054401 0.030721 -0.07706 151 115 56
0.0059008 0.049366 -0.075628 147 116 69
0.07425 0.055513 -0.077976 96 76 51
0.043242 0.057027 -0.072262 124 97 54
-4.774e-05 0.066238 -0.0055614 102 85 53
0.0094718 0.061081 -0.073145 96 74 40
0.010969 0.068746 -0.011679 105 81 45
0.063619 0.066541 -0.056256 164 130 88
0.00026409 0.078222 -0.011651 165 137 88
0.064122 0.076099 -0.071605 172 145 117
-0.0059419 0.086415 -0.025877 96 76 44
-0.00098004 0.087003 -0.024272 106 84 51
0.042577 0.085275 -0.05361 159 130 86
-0.00062529 0.096156 -0.0093628 106 85 57
0.0078757 0.094798 -0.020465 153 128 82
0.041177 0.094182 -0.051425 161 134 91
-0.0017927 0.10692 -0.010195 120 96 45
0.035504 0.10893 -0.05635 174 141 91
0.035654 0.10827 -0.055625 174 141 91
0.016213 0.10943 -0.048519 120 91 50
0.011678 0.11152 -0.022649 165 139 86
0.013106 0.11152 -0.030233 134 109 70
0.040834 0.1114 -0.067203 154 122 71
0.0037365 0.11778 -0.019518 160 133 88
-0.0013488 0.12286 -0.028918 157 134 93
0.0022761 0.12338 -0.026778 161 137 102
-0.01643 -0.027899 -0.010195 122 105 69
0.026836 -0.029691 -0.034481 127 98 64
0.053942 -0.026162 -0.04531 115 86 56
0.035395 -0.018542 -0.045419 144 114 74
0.068809 -0.012298 -0.052801 164 130 91
0.066368 -0.016734 -0.068046 164 130 91
0.034336 -0.014575 -0.057292 222 194 158
0.0041459 0.003805 -0.082746 173 138 91
0.066835 0.015476 -0.074212 73 48 29
0.066835 0.015476 -0.074212 73 48 29
0.029697 0.050008 -0.064785 133 103 61
0.067654 0.049033 -0.076029 144 113 76
0.0068446 0.052329 -0.050644 120 90 48
0.041818 0.058752 -0.06045 75 58 41
0.047193 0.065266 -0.062296 150 125 82
0.044381 0.066536 -0.055617 89 61 32
0.019704 0.069102 -0.058509 135 105 65
0.0096162 0.099812 -0.01673 163 143 99
0.035285 0.11418 -0.058157 180 152 110
0.01619 0.11671 -0.05205 146 116 70
-0.0066839 0.12166 -0.047222 157 134 93
0.0021921 0.12379 -0.047741 161 137 93
0.0063522 -0.034111 -0.024238 120 101 63
0.048956 -0.033774 -0.032347 163 133 91
0.027276 -0.036562 -0.037543 127 102 65
-0.0068082 -0.02945 -0.027914 108 89 53
0.011316 -0.013592 -0.016071 95 70 43
-0.0017729 -0.01114 -0.019396 163 146 112
0.011627 -0.0091507 -0.03152 242 219 183
0.061189 0.031138 -0.076163 155 123 78
0.061829 0.043786 -0.075435 138 105 65
0.068666 0.055175 -0.057073 101 75 42
0.0097013 0.06219 -0.0053433 74 56 26
0.062297 0.059916 -0.051597 158 128 91
0.02138 0.099741 -0.049184 128 104 68
0.018831 0.10321 -0.046484 165 136 89
0.024766 0.10525 -0.058839 174 144 96
0.037385 -0.033676 -0.03298 132 104 67
0.059977 -0.038984 -0.065447 153 122 85
0.060947 0.012398 -0.076598 179 145 100
0.016276 0.086465 -0.056512 146 115 68
0.0012354 0.10278 -0.0066874 143 124 75
0.013045 0.12176 -0.032245 167 140 90
0.064387 -0.026184 0.10679 61 55 50
-0.0039616 -0.029626 -0.011509 115 93 60
0.038962 -0.022488 -0.049436 105 79 54
0.0057852 0.081427 -0.018712 87 71 41
-0.0095623 0.12002 -0.027935 161 134 79
0.0048374 0.0055624 -0.019273 128 108 75
0.0068998 0.003137 -0.061524 176 145 97
0.0090344 0.047864 -0.053815 163 127 71
0.032091 0.062893 -0.056545 164 132 88
0.054879 0.070964 -0.053598 159 128 84
0.012435 0.078249 -0.038961 106 81 47
0.01373 0.096451 -0.038818 107 82 54
0.034722 0.10797 -0.057149 172 140 90
0.0067488 0.11235 -0.020094 180 150 94
0.0037333 0.11112 -0.030436 180 150 94
0.021105 -0.012957 -0.020539 133 105 68
0.021105 -0.012957 -0.020539 133 105 68
0.052134 -0.027015 -0.0086135 144 116 76
0.016467 -0.037108 -0.040485 97 72 44
0.06941 -0.01895 -0.00080418 109 81 55
0.085635 -0.012743 0.0064546 149 114 75
-0.016896 -0.032334 -0.070713 123 104 71
0.018208 -0.022769 -0.041985 139 112 76
0.01988 -0.025665 -0.064183 148 119 87
0.0024109 -0.0217 -0.048948 98 78 46
0.077603 -0.0060736 -0.004744 137 103 67
0.017261 -0.021408 -0.057405 124 95 63
0.028196 -0.014689 -0.059666 112 85 44
0.0095345 -0.021444 -0.097315 151 119 73
0.035262 0.0062871 -0.063704 71 45 24
-0.022216 -0.0036686 -0.14269 165 135 95
-0.022216 -0.0036686 -0.14269 165 135 95
-0.01905 -0.0017866 -0.14982 135 106 61
0.091647 0.03197 0.0087565 159 128 88
0.046554 0.051567 -0.045494 104 76 40
0.00018888 0.056888 -0.035715 88 70 43
-0.0099551 0.060983 -0.042931 121 103 71
0.088011 0.082356 0.018147 146 118 80
0.0092069 0.075738 -0.072619 134 109 63
-0.0026423 0.075634 -0.087583 75 52 26
0.067954 0.0852 -0.0043273 120 95 72
-0.016591 0.081674 -0.052447 75 58 34
0.024272 0.082981 -0.054867 145 116 71
-0.0046061 0.085582 -0.036806 99 77 47
0.07438 0.089077 -0.0090191 73 46 19
0.07508 0.09023 -0.013379 176 148 108
0.052514 0.095072 -0.016711 121 92 55
0.0098237 0.094471 -0.027395 96 73 41
-0.0074901 0.09674 -0.039844 54 37 16
0.0042189 0.097944 -0.072508 86 67 43
0.050569 0.10099 -0.018465 171 141 96
0.012059 0.10158 -0.017789 117 94 54
0.020172 0.10213 -0.055849 139 116 76
0.051549 0.10348 -0.037122 179 151 109
0.045474 0.10418 -0.024066 144 115 72
0.006016 0.10325 -0.070204 107 86 51
-0.021882 0.10453 -0.064673 162 143 90
0.0070403 0.10628 -0.051875 142 119 78
-0.016577 0.10799 -0.052501 164 143 94
0.05229 0.11346 -0.020132 182 152 101
0.0096752 0.11416 -0.03125 167 143 92
0.010057 0.11915 -0.042509 179 157 112
0.12916 0.020423 0.19888 42 33 29
-0.018045 -0.04758 -0.070632 120 100 64
-0.05587 -0.050838 -0.11489 150 132 96
0.045362 -0.017902 -0.01961 126 100 66
-0.024084 -0.033984 -0.075364 113 95 66
0.017013 -0.01884 -0.026928 120 98 65
-0.058552 -0.037392 -0.11751 56 49 38
-0.0085991 -0.020374 -0.062432 75 53 21
-0.013812 -0.020272 -0.067426 98 75 50
0.037418 -0.0022599 -0.063132 142 106 61
0.0407 -0.0030074 -0.072819 173 135 87
0.042468 0.011293 -0.066985 173 139 96
0.043375 0.017359 -0.064087 180 146 94
0.041765 0.034378 -0.050584 79 52 27
0.041765 0.034378 -0.050584 79 52 27
-0.0049504 0.057248 -0.092268 110 86 50
0.054809 0.068103 -0.020675 158 131 93
0.085353 0.072984 0.014799 109 83 53
-0.0064586 0.067624 -0.032061 161 146 108
0.0082902 0.069285 -0.018172 129 107 68
0.00017141 0.074151 -0.02454 151 129 84
-0.0042553 0.077168 -0.040423 153 126 80
-0.0034759 0.079248 -0.048294 107 79 43
0.009371 0.087316 -0.022423 121 97 61
0.0036143 0.088891 -0.032457 132 110 64
0.051094 0.10522 -0.017946 176 150 103
0.050831 0.10803 -0.020464 185 155 102
0.0095273 0.10812 -0.067657 132 106 68
0.016746 0.10979 -0.061236 159 128 81
0.052029 0.11608 -0.023046 177 148 107
0.021258 -0.024168 -0.044047 157 131 95
-0.032745 -0.034297 -0.086945 111 90 57
0.016815 -0.017456 -0.051473 110 86 51
0.078804 -0.0012902 -0.0034919 162 130 90
0.092992 0.0032855 -0.0036988 129 99 71
0.096523 0.061797 0.011423 182 147 99
-0.002192 0.065608 -0.029307 149 132 99
0.042383 0.073695 -0.035858 129 100 60
0.073306 0.08985 0.0028169 176 149 106
0.0021576 0.086393 -0.065005 110 87 54
0.04927 0.10019 -0.06761 164 138 99
0.016296 0.105 -0.014677 122 100 60
-0.0046993 0.10719 -0.037859 176 153 100
-0.0046993 0.10719 -0.037859 176 153 100
0.030145 0.10966 -0.044339 169 140 87
0.003687 0.11275 -0.077218 99 78 49
-0.00072208 -0.03398 0.0095795 42 37 30
0.0049449 -0.034076 0.0078958 47 40 37
0.062477 -0.013739 0.0042736 140 108 69
0.062477 -0.013739 0.0042736 140 108 69
0.016908 -0.01727 -0.032306 139 112 78
-0.01121 0.05822 -0.042294 128 109 71
0.0074729 0.067849 -0.031825 108 83 46
0.0049464 0.083868 -0.046951 96 73 44
0.0082427 0.10859 -0.036809 202 174 116
0.07026 -0.014549 -0.0056596 115 85 58
-0.017074 -0.027094 -0.064841 116 96 66
-0.046974 -0.035116 -0.10554 63 51 39
0.025399 -4.8686e-05 -0.080641 157 128 85
0.0035028 0.061055 -0.044099 125 106 65
0.096908 0.069393 0.0031545 169 136 96
-0.00071505 0.070924 -0.07924 101 74 40
0.068705 0.094056 -0.024423 185 151 96
0.092379 0.0060412 0.16833 52 44 36
0.042078 -0.01545 -0.015639 136 107 76
0.084169 0.080071 -0.0030609 146 114 69
0.034544 0.097551 -0.037223 136 108 67
0.0041903 0.12252 -0.049849 141 114 63
-0.06363 -0.059145 -0.12988 120 102 63
0.040739 -0.023227 -0.015028 134 109 70
0 0 0 1 0 0 0 1 0 0 0 1 0 0 0 0 0 530 1 0 0
