ply
format ascii 1.0
comment PCL generated
element vertex 1172
property float x
property float y
property float z
property uchar red
property uchar green
property uchar blue
element camera 0
property float view_px
property float view_py
property float view_pz
property float x_axisx
property float x_axisy
property float x_axisz
property float y_axisx
property float y_axisy
property float y_axisz
property float z_axisx
property float z_axisy
property float z_axisz
property float focal
property float scalex
property float scaley
property float centerx
property float centery
property int viewportx
property int viewporty
property float k1
property float k2
end_header
-0.0076054 0.072515 -0.026997 217 181 139
-0.0057442 0.075092 -0.039056 223 185 129
-0.0071651 0.075877 -0.06767 218 187 139
-0.0071174 0.077835 -0.067731 238 205 151
0.051904 0.075711 -0.070893 248 211 146
-0.0053373 0.078605 -0.03883 232 193 129
-0.005119 0.081326 -0.04145 221 188 140
0.020407 0.080938 -0.069521 251 214 148
0.046481 0.08474 -0.071001 74 58 34
-0.0020441 0.088527 -0.073122 122 96 55
-0.013759 0.089549 -0.074859 81 55 18
0.024873 0.090813 -0.076541 134 112 73
0.024873 0.090813 -0.076541 134 112 73
-0.0063038 0.091852 -0.078948 239 208 147
-0.0063038 0.091852 -0.078948 239 208 147
-0.013499 0.092905 -0.047041 187 151 102
-0.0080453 0.095775 -0.027012 179 151 116
-0.01533 0.096404 -0.077217 122 98 63
-0.020821 0.1014 -0.075206 93 70 44
-0.015629 0.10393 -0.077813 52 42 34
-0.021367 0.10613 -0.066616 63 44 18
-0.019891 0.1094 -0.064431 175 144 89
0.006379 0.11361 -0.063467 148 112 52
0.0038918 0.11559 -0.061178 148 117 69
0.0057085 -0.037387 -0.089843 226 194 134
-0.023666 -0.036027 -0.050135 255 245 181
-0.018567 -0.027978 -0.071484 255 221 153
-0.023415 -0.03312 -0.023345 84 66 55
-0.012412 -0.02705 -0.063066 243 203 151
-0.013129 -0.023419 -0.075565 240 194 134
-0.026582 -0.03051 0.018822 45 35 31
-0.0069019 -0.017299 -0.076077 243 199 134
-0.011781 -0.021633 -0.021185 188 163 134
-0.008812 -0.015022 -0.073851 209 173 112
0.036072 -0.021524 -0.076274 233 197 130
0.036072 -0.021524 -0.076274 233 197 130
0.027903 -0.019669 -0.070948 197 159 105
-0.0084541 -0.018862 -0.018471 47 33 30
0.00037514 -0.014063 -0.044033 196 162 121
0.054048 -0.01613 -0.066248 255 230 165
0.029638 0.02991 -0.065613 136 96 61
0.029638 0.02991 -0.065613 136 96 61
0.0013892 0.050806 -0.036949 252 205 143
0.02829 0.050772 -0.065285 226 187 120
0.037963 0.050904 -0.066345 255 238 158
-0.0047337 0.058122 -0.070391 255 255 196
-0.0037399 0.06094 -0.058787 248 210 150
-0.0017224 0.062702 -0.06986 149 109 63
-0.0035362 0.066578 -0.044304 228 187 129
0.016799 0.070986 -0.071389 246 209 141
0.016765 0.070908 -0.071415 184 156 104
0.016799 0.070986 -0.071389 246 209 141
-0.007093 0.072117 -0.05926 236 194 130
-0.007093 0.072117 -0.05926 236 194 130
-0.0076352 0.072135 -0.059737 236 194 130
0.036165 0.071379 -0.070036 185 161 106
0.018053 0.072519 -0.06635 245 206 137
0.044316 0.08077 -0.069945 164 138 84
0.043635 0.08082 -0.070512 249 223 158
-0.014226 0.091973 -0.072451 187 158 104
-0.014561 0.093024 -0.05412 206 171 121
-0.016557 0.097519 -0.082552 200 173 125
-0.01646 0.0975 -0.082462 255 227 165
-0.0054169 0.10104 -0.041438 182 145 93
0.033988 0.10495 -0.072147 142 125 90
0.010674 0.11224 -0.062971 150 120 64
-0.016151 -0.029111 -0.020166 163 144 124
-0.013513 -0.025663 -0.033653 242 193 136
-0.0083251 -0.018341 -0.067612 239 198 143
-0.0083251 -0.018341 -0.067612 239 198 143
-0.0095092 -0.018761 -0.052889 221 178 117
0.044553 -0.022284 -0.07711 204 174 113
-0.0064287 -0.015683 -0.039607 254 209 151
-0.0077074 -0.015354 -0.040905 185 144 96
-0.0066561 -0.01554 -0.022609 246 220 185
0.072876 -0.020618 -0.0683 137 126 96
0.072876 -0.020618 -0.0683 137 126 96
0.053497 -0.016096 -0.06675 255 230 165
0.035608 0.020633 -0.066779 219 181 116
-0.0015269 0.05533 -0.041914 254 213 156
-0.0054824 0.056741 -0.026016 243 197 140
0.045851 0.062104 -0.068864 180 153 96
-0.0057285 0.074853 -0.053704 223 186 122
-0.0056346 0.07721 -0.044566 224 185 131
-0.0066086 0.078596 -0.059967 246 203 131
-0.0066086 0.078596 -0.059967 246 203 131
-0.014475 0.093056 -0.061332 232 202 144
-0.018072 0.10054 -0.081217 211 190 141
0.013158 0.10292 -0.076453 44 35 29
-0.00054219 0.11909 -0.048467 156 132 106
-0.012375 -0.02135 -0.079735 254 210 147
-0.0078281 -0.018038 -0.059595 152 117 74
-0.0078281 -0.018038 -0.059595 152 117 74
-0.0045041 -0.010441 -0.024069 174 146 110
0.060132 -0.0029931 -0.059491 214 173 104
-0.0050035 0.067706 -0.062956 255 222 165
0.011349 0.073895 -0.070155 183 146 93
-0.0074602 0.079361 -0.047393 216 179 128
0.04813 0.08655 -0.069217 58 43 24
-0.009133 0.094233 -0.030964 206 170 111
-0.010823 0.093472 -0.060119 188 153 99
0.019859 0.10933 -0.064737 141 117 73
-0.020755 -0.035485 -0.089301 173 138 90
0.0062047 -0.024889 -0.082013 230 194 138
0.0020991 -0.015932 -0.066015 246 205 136
0.048546 -0.0055477 -0.062 236 202 136
0.036557 0.05563 -0.067287 209 181 120
-0.006817 0.08056 -0.031907 231 190 126
0.03537 0.097143 -0.083265 150 134 89
-0.007658 0.10656 -0.073437 179 155 110
-0.014783 0.11569 -0.046019 152 133 107
-0.0082687 0.0075823 -0.02716 191 149 94
-0.02944 0.10148 -0.088645 45 35 27
-0.02944 0.10148 -0.088645 45 35 27
0.016132 0.048279 -0.062879 255 226 151
-0.0059853 0.078008 -0.069784 210 170 106
-0.0064293 0.078389 -0.050839 235 195 134
0.033294 0.089989 -0.07604 95 78 48
0.031381 0.08992 -0.077636 249 227 158
0.06265 -4.8868e-05 -0.064344 225 187 117
0.0021538 0.036211 -0.061705 242 197 128
0.0011828 0.055712 -0.062302 245 209 148
-0.0072648 0.090267 -0.084075 137 119 83
-0.003375 0.060416 -0.031336 251 205 139
-0.021767 -0.037312 -0.085348 175 140 92
-0.020734 -0.03257 -0.089355 255 228 169
-0.022804 -0.033631 -0.055702 127 101 66
-0.017308 -0.031732 -0.076167 253 211 151
-0.018713 -0.027838 -0.075142 255 219 156
-0.018713 -0.027838 -0.075142 255 219 156
-0.018631 -0.030127 -0.025983 241 198 137
0.03885 -0.022324 -0.074697 208 178 118
-0.0058227 -0.013386 -0.072414 243 199 132
-0.0033746 -0.0079361 -0.033102 207 160 101
0.059472 0.0015497 -0.063976 223 188 121
-0.0042513 0.021637 -0.064794 92 58 14
-0.0041361 0.024396 -0.06471 99 65 10
0.0013069 0.047122 -0.03673 249 200 132
-0.001875 0.049454 -0.067305 206 167 110
-0.004029 0.065005 -0.039965 228 183 122
-0.0059312 0.082039 -0.034014 200 162 101
-0.0060495 0.083454 -0.065568 115 81 37
-0.0060495 0.083454 -0.065568 115 81 37
-0.0052565 0.083915 -0.051236 192 154 96
-0.0048976 0.085584 -0.056094 201 165 108
-0.0048175 0.085576 -0.056043 201 165 108
0.022346 0.088688 -0.077804 249 221 159
0.027727 0.090461 -0.078794 99 79 48
-0.0094918 0.095968 -0.064993 135 101 56
-0.013825 0.1053 -0.052076 57 36 9
-0.013825 0.1053 -0.052076 57 36 9
-0.01406 0.11066 -0.040162 71 52 36
-0.012978 0.11425 -0.048925 97 72 32
-0.023826 -0.035629 -0.028895 252 212 150
-0.011707 -0.02106 -0.04544 221 178 123
-0.0079619 -0.01843 -0.037404 252 203 142
0.00089277 -0.0069848 -0.069346 255 224 147
0.0039032 0.030398 -0.037919 210 180 117
-0.0058041 0.052202 -0.029439 162 133 94
-0.0026017 0.061728 -0.048547 228 191 126
-0.0010746 0.062819 -0.069279 238 202 133
0.019855 0.067816 -0.068147 196 163 109
-0.0038408 0.069841 -0.068134 158 126 71
-0.0031437 0.076347 -0.055454 234 195 128
-0.0037339 0.079456 -0.055482 232 191 130
-0.006448 0.081314 -0.042568 167 122 82
0.043706 0.090322 -0.077661 87 71 47
-0.017954 0.10046 -0.070087 131 107 72
-0.014088 0.11104 -0.043485 161 139 112
-0.067856 -0.037132 -0.11535 173 132 70
0.030812 -0.056299 -0.068817 103 80 46
-0.013558 -0.032592 0.015272 41 33 29
-0.0076902 -0.018486 -0.043104 191 150 95
-0.0077128 -0.015242 -0.044624 252 208 144
-0.023236 0.044951 -0.029704 193 154 107
0.003027 0.047405 -0.066868 249 211 140
0.055041 0.068603 -0.070868 53 40 17
0.023425 0.071963 -0.070129 193 160 100
0.026318 0.043782 -0.061277 140 113 70
-0.012493 0.097378 -0.085946 153 125 73
0.0037633 0.10155 -0.082477 174 148 99
-0.025609 -0.039059 -0.046644 62 40 28
-0.0056413 0.05685 -0.026516 255 219 157
-0.018326 0.09964 -0.067018 60 39 12
-0.0055103 0.0061912 -0.067385 248 210 150
-0.010315 0.0977 -0.034006 214 175 123
-0.022466 0.11382 -0.059712 186 160 114
0.059737 -0.033896 -0.074167 204 175 119
-0.005308 -0.027957 -0.034606 231 184 133
-0.035864 -0.038084 -0.079174 53 40 35
-0.02164 -0.033803 -0.067508 255 220 164
-0.018202 -0.03155 -0.072429 250 209 149
-0.018375 -0.030844 -0.061804 248 203 142
-0.018528 -0.028079 -0.058609 255 217 153
-0.012123 -0.021548 -0.054724 253 208 141
-0.0082911 -0.014346 -0.067577 227 189 124
0.062896 -0.027187 -0.075898 176 156 108
-0.00032305 -0.0094375 -0.069358 255 215 141
-0.00032305 -0.0094375 -0.069358 255 215 141
-0.002352 -0.0073445 -0.068498 253 217 148
2.8525 -0.62485 1.706 100 76 44
0.028899 0.0032445 -0.065486 237 192 116
-0.0021378 0.011896 -0.067771 225 188 137
-0.0062394 0.058932 -0.034201 242 198 133
-0.0031677 0.060588 -0.033568 234 186 118
0.0421 0.059424 -0.068117 119 95 46
-0.0044403 0.063061 -0.068885 212 172 110
-0.0064308 0.072296 -0.05993 186 152 93
-0.0056662 0.072436 -0.044417 191 152 97
-0.0062831 0.072565 -0.040315 225 185 121
-0.0053688 0.082094 -0.043447 183 143 94
-0.0055923 0.082342 -0.063462 164 129 82
0.044372 0.080743 -0.069922 153 127 80
0.024383 0.082816 -0.068279 121 92 45
-0.0051258 0.085588 -0.044293 234 197 141
-0.0052672 0.085594 -0.044364 234 197 141
-0.0056035 0.085549 -0.041195 216 175 120
-0.0053739 0.085953 -0.047987 213 175 122
-0.010628 0.089297 -0.069464 72 48 13
-0.010628 0.089297 -0.069464 72 48 13
-0.0084656 0.090208 -0.043544 113 85 45
-0.0084656 0.090208 -0.043544 113 85 45
-0.013973 0.092185 -0.060336 162 136 84
-0.0096221 0.093896 -0.082121 126 103 53
-0.0096221 0.093896 -0.082121 126 103 53
-0.010476 0.094829 -0.06858 96 66 28
-0.016469 0.096443 -0.077973 168 142 103
-0.018182 0.098273 -0.0798 145 125 91
-0.010953 0.098607 -0.061387 115 86 52
-0.010823 0.098628 -0.061334 115 86 52
-0.01814 0.098985 -0.077192 71 50 31
-0.017182 0.10194 -0.083257 48 39 33
-0.011776 0.10547 -0.04578 107 83 60
-0.020794 0.10709 -0.069279 176 150 94
-0.024478 -0.036238 -0.04432 255 220 160
-0.024454 -0.03365 -0.054003 255 226 167
-0.024562 -0.033547 -0.054064 255 226 167
-0.017397 -0.028431 -0.062369 250 209 144
-0.016477 -0.028743 -0.06198 250 209 144
-0.016867 -0.028196 -0.030347 250 214 161
-0.013375 -0.026524 -0.02561 237 189 128
-0.011915 -0.020878 -0.033791 228 187 133
-0.0084291 -0.019279 -0.025264 200 152 102
3.4136e-05 -0.013698 -0.040216 246 192 132
-0.00051234 -0.013649 -0.040454 246 192 132
-0.0039683 0.010925 -0.065212 208 175 138
0.030135 0.030022 -0.065299 109 72 37
-0.0040099 0.063789 -0.020992 132 105 74
-0.0021877 0.072217 -0.071081 213 171 96
-0.0054158 0.07967 -0.053649 227 191 133
-0.014491 0.090306 -0.05883 96 72 38
-0.011427 0.090328 -0.054528 101 73 38
-0.0074204 0.096563 -0.038977 206 167 112
0.0044584 0.11566 -0.060943 155 124 76
-0.0023729 0.11829 -0.056932 117 86 39
-0.020159 -0.03756 -0.071028 242 200 141
-0.013284 -0.026713 -0.063513 235 197 139
-0.012226 -0.020763 -0.068572 245 203 141
-0.0058709 -0.015427 -0.04963 232 194 134
-0.0057405 -0.014498 -0.059422 213 176 118
-0.0084744 -0.01451 -0.031753 240 203 153
0.0013496 0.050907 -0.037224 255 215 149
-0.0059057 0.076724 -0.042486 165 120 84
-0.008731 0.089763 -0.034666 70 47 23
-0.008731 0.089763 -0.034666 70 47 23
-0.011867 0.092707 -0.03461 79 57 23
-0.0055236 0.10111 -0.041499 174 137 83
0.017795 -0.031249 -0.083461 228 195 137
-0.0088308 -0.017929 -0.067982 235 190 131
-0.0075121 -0.018381 -0.0594 217 174 115
-0.01006 -0.017801 -0.047866 207 162 103
-0.0062498 -0.015791 -0.039748 250 204 138
-0.0038741 0.081705 -0.069635 192 158 99
-0.0016262 0.11938 -0.049303 151 127 102
-0.014067 -0.021427 -0.080713 231 186 117
-0.018158 -0.024215 -0.036929 236 187 128
0.068111 0.063207 -0.071486 214 181 121
-0.0089823 0.078442 -0.052745 211 173 110
-0.0066859 0.086207 -0.060866 135 102 55
-0.0045567 0.057134 -0.065736 240 206 138
-0.022147 -0.033592 -0.07454 255 234 163
-0.018895 -0.032607 -0.063054 237 195 138
-0.012519 -0.023473 -0.025442 218 171 103
-0.012456 -0.020827 -0.060195 252 212 146
-0.012456 -0.020827 -0.060195 252 212 146
-0.0040897 -0.0093788 -0.06615 254 217 140
-0.0040897 -0.0093788 -0.06615 254 217 140
-0.0032406 -0.0081508 -0.032992 247 198 125
0.0024966 0.030306 -0.038562 255 234 154
-0.003964 0.060483 -0.03874 223 177 111
-0.0037951 0.064929 -0.039869 229 183 120
-0.0047322 0.069726 -0.068494 166 132 73
-0.0040706 0.069714 -0.057481 185 145 85
-0.005044 0.078636 -0.038673 228 186 120
-0.0055313 0.083432 -0.065349 78 52 18
-0.0055313 0.083432 -0.065349 78 52 18
-0.0052041 0.083332 -0.061465 138 107 60
-0.012034 0.089524 -0.073871 81 60 23
-0.014071 0.092543 -0.042171 199 164 111
-0.0061714 0.10149 -0.042172 173 136 84
-0.0065828 0.10404 -0.037119 180 142 90
-0.013481 0.10845 -0.039432 50 34 21
-0.00069892 0.12054 -0.051377 114 88 63
-0.023696 -0.035447 -0.028797 242 203 144
-0.017288 -0.031398 -0.076371 244 202 140
-0.017198 -0.028362 -0.065639 205 163 109
-0.016909 -0.028175 -0.054606 252 215 154
-0.0072777 -0.018494 -0.037044 245 195 132
-0.0072777 -0.018494 -0.037044 245 195 132
0.033962 0.029017 -0.066975 223 188 124
-0.0047589 0.050888 -0.062879 56 44 36
-0.0056128 0.051967 -0.029464 108 87 57
-0.0053704 0.074823 -0.059455 198 156 99
-0.0055319 0.075026 -0.038926 198 158 100
-0.0041004 0.076372 -0.055601 234 199 138
-0.011595 0.091746 -0.031487 87 70 49
-0.013993 0.092956 -0.046706 186 152 97
-0.014167 0.1107 -0.040262 71 59 46
-0.019145 -0.02786 -0.071901 255 219 156
-0.01396 -0.023077 -0.075806 214 169 106
-0.012873 -0.020649 -0.068767 241 199 137
-0.012486 -0.021421 -0.039363 252 213 159
-0.010901 0.089544 -0.069344 76 55 17
-0.010901 0.089544 -0.069344 76 55 17
-0.015827 0.092073 -0.073069 185 158 100
-0.015827 0.092073 -0.073069 185 158 100
-0.013832 0.093207 -0.053614 204 170 113
-0.010131 0.096306 -0.065199 102 73 40
-0.01566 0.097523 -0.08222 196 168 113
-0.023641 -0.039917 -0.068857 56 38 26
-0.023883 -0.038888 -0.045452 74 47 27
-0.017206 -0.028275 -0.039077 255 223 170
-0.0073512 0.073183 -0.031624 148 123 88
-0.0109 -0.022204 -0.079692 233 188 116
-0.010187 0.093593 -0.059088 185 149 93
-0.021825 -0.035236 -0.059352 255 228 167
-0.022281 -0.034156 -0.061942 255 222 156
-0.012901 0.099739 -0.064561 53 36 14
-0.022984 -0.036488 -0.043928 255 216 158
-0.022941 -0.033322 -0.055623 255 229 175
-0.020151 -0.031889 -0.025539 239 194 132
-0.017027 -0.028484 -0.074653 246 205 133
-0.017879 -0.027769 -0.030597 237 199 151
-0.011868 -0.027021 -0.032789 218 170 120
-0.011207 -0.020558 -0.052375 241 202 139
-0.0029451 -0.012115 -0.060581 114 89 59
-0.0044995 -0.010824 -0.064623 78 50 26
-0.002576 0.0084129 -0.033108 255 216 142
-0.0042979 0.014601 -0.063204 69 37 1
-0.0040059 0.024559 -0.062743 90 52 0
-0.0060723 0.058763 -0.03409 239 200 133
-0.0037389 0.060742 -0.033573 249 203 139
-0.0058635 0.072548 -0.04022 217 177 114
-0.0065106 0.076079 -0.030903 60 41 20
-0.0052675 0.076069 -0.04644 183 139 91
-0.0059913 0.081814 -0.030771 147 115 79
-0.0040384 0.082018 -0.04317 173 134 89
-0.0049587 0.082098 -0.060025 181 145 95
-0.0056439 0.082308 -0.063484 182 148 98
-0.0079392 0.090053 -0.040087 111 85 48
-0.0079392 0.090053 -0.040087 111 85 48
-0.014344 0.094366 -0.077326 78 54 14
-0.01762 -0.028356 -0.062344 253 216 150
-0.017249 -0.027988 -0.034431 248 211 162
-0.018289 -0.028081 -0.024855 231 198 153
-0.01192 -0.021613 -0.0547 250 207 138
-0.040668 -0.013535 -0.023171 115 84 50
-0.0066794 -0.018421 -0.042956 161 113 57
-0.0068637 -0.014362 -0.059839 200 165 112
-0.0012192 -0.011939 -0.056427 160 136 108
-0.0051958 0.072845 -0.049976 233 196 126
-0.0048009 0.074921 -0.059392 191 149 90
-0.0042877 0.079663 -0.055615 211 177 114
-0.010375 0.095118 -0.068532 104 78 46
-0.007325 0.10406 -0.034007 182 151 106
-0.021946 -0.037002 -0.071707 249 212 149
-0.023084 -0.036196 -0.050996 245 205 141
-0.006641 -0.015432 -0.044201 241 202 136
-0.00017778 -0.013851 -0.044441 196 160 113
-0.0018705 0.061823 -0.043998 240 194 125
-0.0024115 0.062669 -0.05588 229 189 114
-0.0018507 0.065055 -0.036894 218 173 113
-0.0048248 0.072486 -0.045958 198 158 102
-0.0048248 0.072486 -0.045958 198 158 102
-0.0050314 0.07675 -0.04228 154 113 81
-0.012798 0.092687 -0.035014 82 61 27
-0.022064 -0.03601 -0.049676 255 232 166
-0.012033 0.092877 -0.065835 165 133 77
-0.015018 -0.024888 -0.035932 217 168 111
-0.0045987 0.073895 -0.053042 233 196 139
0.19042 -0.093161 -0.056512 167 140 95
-0.022659 -0.035142 -0.041907 255 229 165
-0.0010677 0.064317 -0.023655 238 195 134
-0.0056594 0.077697 -0.051673 161 123 73
-0.0075528 0.081282 -0.032119 207 169 112
-0.0027586 0.099805 -0.031628 171 138 93
-0.021796 -0.0372 -0.085407 181 147 91
-0.023411 -0.033161 -0.062903 255 230 165
-0.019497 -0.02733 -0.050507 201 162 104
-0.011458 -0.021114 -0.050383 248 210 149
-0.0031756 -0.013834 -0.049514 184 153 108
-0.0031552 -0.012818 -0.031156 66 41 24
-0.0032704 -0.012785 -0.031164 66 41 24
-0.00042036 -0.012834 -0.024131 91 78 63
0.0018179 -0.01326 -0.051186 204 176 138
-0.0039029 0.0029319 -0.062038 202 168 111
-0.0033551 0.030679 -0.061141 109 87 51
-0.0041093 0.060379 -0.022857 101 81 60
-0.0038229 0.060424 -0.038685 214 169 109
-0.0036269 0.062418 -0.027952 144 124 91
-0.006349 0.072019 -0.063981 125 93 48
-0.0061996 0.072389 -0.044582 244 207 144
-0.0055765 0.082079 -0.033924 230 188 124
-0.0058986 0.083775 -0.038581 179 141 83
-0.0055163 0.085625 -0.044281 217 180 125
-0.0055697 0.085644 -0.056181 208 175 119
-0.012291 0.092039 -0.078196 187 165 107
-0.0080804 0.094063 -0.029955 108 88 59
-0.012977 0.094435 -0.071891 73 46 13
-0.017614 0.09818 -0.079752 150 128 85
-0.018524 0.099053 -0.077201 99 82 58
-0.020442 0.10549 -0.073869 195 165 107
-3.5979e-06 0.12053 -0.051328 106 83 55
-0.022968 -0.034105 -0.053715 255 233 169
-0.017263 -0.031269 -0.076451 249 209 146
-0.016267 -0.028564 -0.072216 250 212 144
-0.01207 -0.020896 -0.068811 224 186 122
0.001671 -0.013787 -0.039976 240 188 130
-0.03824 0.038571 -0.046692 143 115 76
-0.0046887 0.057041 -0.023193 83 75 61
0.10505 0.062224 0.0046043 180 142 91
-0.0049944 0.071714 -0.059357 195 163 110
-0.012871 0.090281 -0.058442 100 77 41
-0.011736 0.090389 -0.054858 98 74 36
-0.013472 0.092512 -0.041988 205 173 117
-0.01654 0.096459 -0.07797 62 39 3
-0.01385 -0.026473 -0.063692 206 169 113
-0.0033865 0.05788 -0.039716 233 188 130
-0.0044182 0.074334 -0.066264 171 146 106
-0.0048688 0.085825 -0.033809 200 161 109
-0.009139 0.089475 -0.069161 75 54 14
-0.013408 0.092778 -0.060208 184 156 103
-0.013658 0.09284 -0.060206 184 156 103
-0.0078644 0.095027 -0.03165 192 153 96
-0.012729 0.10353 -0.050311 111 87 64
-0.012729 0.10353 -0.050311 111 87 64
-0.015553 0.10848 -0.05111 86 59 31
-0.0097768 -0.018725 -0.042862 206 159 108
-0.0097768 -0.018725 -0.042862 206 159 108
-0.0068736 -0.015642 -0.040423 239 195 134
0.00019191 -0.0099799 -0.037241 212 161 96
-0.01026 0.09134 -0.031241 134 115 86
-0.010494 0.091879 -0.082423 205 178 120
-0.016413 0.10062 -0.080825 224 207 151
-0.018031 -0.03617 -0.088721 53 40 33
-0.017665 -0.028544 -0.039723 255 219 165
-0.0082058 0.094854 -0.027964 109 99 79
-0.020367 -0.035062 -0.047675 255 233 173
0.0025644 0.074602 -0.068384 179 145 85
-0.014884 0.098651 -0.079907 133 112 67
-0.021538 -0.034518 -0.061918 255 228 162
0.00045297 0.057048 -0.065598 225 192 124
-0.0014183 0.061336 -0.030735 222 183 119
-0.019608 -0.032027 -0.025597 212 169 117
-0.021932 -0.033841 -0.079262 248 216 152
-0.018595 -0.030012 -0.023709 129 107 76
-0.018595 -0.030012 -0.023709 129 107 76
-0.017521 -0.03145 -0.058271 254 216 149
-0.017397 -0.028366 -0.058456 255 215 148
-0.016925 -0.028483 -0.074672 250 214 143
-0.01657 -0.02645 -0.069142 190 158 108
-0.012065 -0.026082 -0.060303 212 175 120
-0.011974 -0.020907 -0.060168 235 197 134
-0.011974 -0.020907 -0.060168 235 197 134
-0.019788 -0.014925 -0.084806 43 35 27
-0.0063619 -0.015001 -0.064507 221 182 120
0.031128 -0.011957 -0.054291 162 131 91
-0.0039642 0.010779 -0.063291 124 102 71
-0.0025505 0.027421 -0.030362 201 162 107
-0.0036493 0.046584 -0.029925 112 81 43
-0.0051204 0.052134 -0.029448 61 43 26
-0.0059317 0.08552 -0.037479 216 174 117
-0.004784 0.085562 -0.041173 218 179 125
-0.0079823 0.087789 -0.072715 157 129 87
-0.010759 0.090018 -0.057265 76 52 19
-0.010759 0.090018 -0.057265 76 52 19
-0.012943 0.093044 -0.046355 160 128 77
-0.014085 0.094599 -0.077411 113 86 47
-0.0063965 0.098079 -0.051146 154 118 63
-0.01382 0.10538 -0.051918 52 38 15
0.03098 -0.059267 -0.085431 45 32 28
-0.023343 -0.03817 -0.04548 92 57 26
-0.021133 -0.033991 -0.071569 255 232 165
-0.018025 -0.028092 -0.024913 208 170 123
-0.013601 -0.026751 -0.032917 217 173 121
-0.012728 -0.023192 -0.075934 216 175 109
-0.012154 -0.021482 -0.054735 240 196 128
-0.012285 -0.020843 -0.045359 223 183 124
-0.0077503 -0.0195 -0.025146 172 128 87
0.00065424 -0.012214 -0.05705 95 69 32
-0.00044033 -0.0042567 -0.069031 252 234 165
-0.0035674 0.02754 -0.0619 68 40 1
0.00071922 0.034572 -0.069141 240 201 132
0.00012099 0.042165 -0.036693 179 133 78
-0.0043818 0.061183 -0.070499 217 178 107
-0.0056984 0.074715 -0.072208 224 191 119
-0.0041976 0.076332 -0.055481 202 169 125
-0.010783 0.08949 -0.069003 75 51 15
-0.0062054 0.096529 -0.038815 173 132 87
-0.0077331 -0.018945 -0.021826 101 83 62
0.0097108 -0.012536 -0.051822 130 99 63
-0.0011784 0.011384 -0.069786 255 214 135
0.0039748 0.026681 0.00067636 150 114 72
0.00034974 0.047212 -0.06694 230 200 136
-0.0024963 0.06189 -0.044165 243 199 134
-0.006737 0.072389 -0.02664 139 114 73
-0.005759 0.081761 -0.069588 179 148 96
-0.010991 0.092937 -0.066095 161 132 79
-0.014366 0.095413 -0.080148 73 48 8
-0.0063626 0.098923 -0.037263 190 159 115
-0.010892 0.098756 -0.06133 63 42 20
-0.0051572 0.099908 -0.032325 190 161 114
-0.0055311 0.10111 -0.041692 181 146 94
-0.011864 0.10846 -0.038932 103 85 54
-0.014142 -0.025334 -0.035934 232 182 116
-0.011226 -0.022435 -0.039439 255 216 154
0.0010017 0.028049 -0.069857 243 206 143
0.0016784 0.034655 -0.069889 248 211 132
-0.00715 0.08278 -0.072808 207 172 108
-0.0099264 0.090444 -0.045064 126 98 57
-0.0099701 0.090439 -0.04506 126 98 57
-0.011632 0.092932 -0.06593 170 139 86
-0.022576 -0.035607 -0.049704 253 216 149
-0.019619 -0.035705 -0.08864 211 173 109
-0.0050158 -0.014601 -0.051921 212 177 126
-0.012097 0.10232 -0.050158 81 57 24
-0.0013548 -0.0098868 -0.058129 141 108 64
0.0032145 0.052559 -0.0042181 228 184 125
0.0067849 -0.036703 -0.079299 251 210 141
0.00099605 0.073534 -0.046606 228 187 115
-0.021817 -0.033517 -0.063088 255 228 171
-0.018461 -0.02949 -0.022073 130 107 78
-0.016642 -0.03199 -0.072375 239 201 140
-0.016902 -0.027882 -0.030562 231 198 150
-0.018535 -0.027709 -0.046371 251 213 158
-0.017877 -0.027675 -0.050563 235 201 144
-0.011903 -0.02747 -0.052293 221 185 128
-0.016877 -0.026074 -0.05498 208 174 122
-0.011836 -0.025638 -0.076949 229 191 128
-0.011836 -0.025638 -0.076949 229 191 128
-0.0091855 -0.022067 -0.051211 249 211 145
-0.011979 -0.020018 -0.051993 199 158 106
-0.0025371 -0.01266 -0.027971 73 53 33
0.0021361 -0.013652 -0.039997 249 199 129
0.001955 -0.012556 -0.046543 180 152 116
-0.004166 -0.011867 -0.062547 71 45 16
-0.003491 0.014598 -0.061341 137 99 37
0.0023313 0.017044 -0.056239 218 177 120
-0.0035664 0.024442 -0.062834 147 116 69
-0.00014404 0.044097 -0.025069 81 67 44
-0.0066229 0.055731 -0.032396 245 209 148
-0.0053573 0.058915 -0.034167 237 195 132
-0.0039716 0.062627 -0.068781 209 173 105
-0.0030621 0.071833 -0.071185 229 196 127
-0.0046784 0.075104 -0.044814 209 166 106
-0.0030982 0.080299 -0.060329 156 119 71
-0.005741 0.081811 -0.030776 133 105 77
-0.0090354 0.090292 -0.049101 76 50 13
-0.014332 0.092262 -0.080198 205 174 113
-0.0066831 0.097531 -0.030429 110 89 60
-0.0063732 0.103 -0.043321 154 120 74
-0.0065579 0.1037 -0.030779 168 150 127
-0.0063487 0.1041 -0.037036 186 151 102
-0.0061145 0.10601 -0.036427 135 105 61
-0.01409 0.11043 -0.040383 135 111 77
-0.00073196 0.12053 -0.051302 105 82 55
-0.017857 -0.028181 -0.062335 253 215 155
-0.011632 -0.023766 -0.046412 233 192 127
-0.013007 -0.020631 -0.068695 207 171 112
-0.0069384 -0.01445 -0.059887 226 194 138
-0.0008739 -0.014011 -0.046487 170 139 97
0.00216 -0.0084574 -0.057043 223 191 138
-0.0021356 0.060446 -0.02092 52 37 25
-0.0041678 0.063664 -0.021269 118 102 77
-0.00971 0.089385 -0.069259 70 48 12
-0.018815 0.096412 -0.077444 81 65 27
-0.01729 0.098093 -0.079949 142 122 72
-0.00648 0.10411 -0.033985 168 145 107
-0.023557 -0.040359 -0.097417 47 37 28
-0.022896 -0.034621 -0.024454 121 98 72
-0.023453 -0.036427 -0.071453 240 204 140
-0.012413 -0.020936 -0.021492 120 98 69
-0.01192 -0.020886 -0.033847 242 205 154
-0.0069477 -0.018491 -0.036988 236 190 141
-0.0070991 -0.018467 -0.036953 236 190 141
-0.0061281 -0.015562 -0.044342 244 207 145
-0.0056262 -0.015323 -0.073453 241 205 133
-0.00070625 0.01887 -0.058882 85 59 27
-0.0058413 0.068858 -0.057386 198 164 102
-0.0075953 0.070872 -0.042241 125 88 36
-0.0055208 0.075854 -0.069567 196 158 93
-0.0053763 0.079716 -0.026933 66 50 33
-0.012024 0.090238 -0.058545 94 72 37
-0.013049 0.09271 -0.060317 182 155 105
-0.0074367 0.094915 -0.031707 193 161 107
-0.011014 0.098778 -0.06129 59 40 18
-0.022999 -0.038906 -0.045719 83 51 16
-0.015343 -0.028758 -0.084266 245 206 132
-0.013814 -0.026351 -0.064405 201 165 108
-0.011532 -0.021416 -0.027823 116 94 60
-0.0058735 -0.015747 -0.040474 216 177 125
-0.0066756 -0.01628 -0.077437 108 72 19
-0.0081378 0.094634 -0.02821 110 95 71
-0.017903 0.10068 -0.080511 223 205 151
-0.017122 0.11152 -0.044209 146 126 90
-0.022482 -0.035455 -0.058416 204 166 106
-0.019636 -0.035727 -0.088642 197 167 105
-0.0021672 -0.021303 -0.019903 129 109 81
-0.0060055 0.063478 -0.04925 240 199 131
-0.0095923 0.091133 -0.031277 136 115 86
-0.010734 0.093887 -0.054924 184 152 96
0.0025403 -0.01068 -0.05901 102 67 26
-0.0051525 0.075383 -0.067629 54 36 15
-0.0014308 0.11713 -0.047094 155 130 87
-0.00040737 0.057155 -0.066615 226 196 128
-0.015199 0.099102 -0.079892 114 94 52
-0.0024377 0.064532 -0.024137 140 120 84
-0.024231 -0.031161 -0.077608 207 173 113
-0.0079587 0.063337 -0.029231 252 214 156
-0.0018384 -0.033888 -0.07628 238 199 129
-0.006002 -0.022536 -0.048433 184 145 89
-0.0051471 -0.022484 -0.048663 184 145 89
-0.006002 -0.022536 -0.048433 184 145 89
-0.022649 -0.034092 -0.053819 255 228 166
-0.022649 -0.034092 -0.053819 255 228 166
-0.022752 -0.033255 -0.05571 253 229 171
-0.022147 -0.033583 -0.071315 254 229 163
-0.021811 -0.033784 -0.07936 241 213 143
-0.019346 -0.032346 -0.063589 219 187 131
-0.011952 -0.023007 -0.059789 170 128 70
-0.0088323 -0.017966 -0.082427 98 87 63
-0.002445 -0.01266 -0.02801 70 50 33
0.028815 -0.0014967 -0.056586 110 71 18
-0.0037357 0.010788 -0.06337 147 122 78
-0.0037152 0.014731 -0.06331 176 146 97
-0.0018009 0.027402 -0.05958 96 65 16
-0.00083144 0.026944 -0.068698 220 184 123
0.029373 0.029888 -0.057382 83 48 0
-0.0038548 0.060247 -0.022901 91 73 45
-0.0031925 0.060417 -0.038806 202 159 100
-0.0039742 0.065664 -0.055559 210 174 115
-0.0056686 0.072005 -0.023917 111 86 51
-0.0058295 0.072562 -0.040228 225 184 127
-0.0043818 0.075081 -0.044916 143 109 59
-0.0088781 0.085752 -0.036529 217 178 125
-0.0043674 0.08565 -0.053394 199 166 113
-0.012534 0.092433 -0.042085 198 167 121
-0.0088199 0.095459 -0.065039 108 85 48
-0.0065927 0.097923 -0.025609 150 129 90
-0.019703 0.10124 -0.075338 83 75 40
-0.018267 -0.027668 -0.03406 231 195 148
-0.015119 -0.029019 -0.085176 236 196 120
-0.012547 -0.023716 -0.038277 232 184 120
-0.0076475 -0.01799 -0.042507 204 159 103
0.0020884 -0.017066 -0.01899 142 118 90
-0.0063569 -0.015721 -0.033649 241 202 146
0.0012421 -0.01227 -0.057234 100 69 32
0.007017 0.00071449 -0.021077 104 91 74
-0.0025464 0.0049008 -0.060679 218 183 132
0.00019359 0.050173 -0.067145 159 134 88
0.00037689 0.061364 -0.045021 237 193 130
-0.0038817 0.075018 -0.059647 163 124 68
-0.0059904 0.081978 -0.052691 206 171 111
-0.0036171 0.083568 -0.039342 177 140 87
-0.0045891 0.083078 -0.061549 159 127 77
-0.01134 -0.021552 -0.078811 219 179 109
8.1961e-05 -0.012713 -0.024154 113 91 62
-0.0012678 -0.012553 -0.068485 167 128 75
-0.00088449 0.031559 -0.066517 128 90 43
0.028682 0.028461 -0.059868 165 128 72
-0.0046516 0.057056 -0.023197 110 92 73
-0.0048985 0.068551 -0.021207 103 85 58
-0.0048985 0.068551 -0.021207 103 85 58
-0.005626 0.07553 -0.029007 134 106 71
-0.0066722 0.095441 -0.027641 136 117 80
-0.0066176 0.099962 -0.03199 194 165 120
-0.0056457 0.084576 -0.069264 165 137 84
-0.011684 0.090463 -0.044467 121 92 55
-0.014824 0.091947 -0.081259 175 151 97
-0.0088655 0.096537 -0.065656 95 73 41
-0.012232 0.10839 -0.038921 100 79 52
-0.022147 -0.040156 -0.068903 53 39 30
-0.024588 -0.035025 -0.073375 236 208 156
-0.0068596 -0.014707 -0.051497 227 190 130
-0.00944 0.091132 -0.031342 131 112 85
-0.023005 -0.034598 -0.033372 124 89 51
0.014968 -0.032107 -0.018239 145 122 85
-0.01986 0.11045 -0.05895 141 118 78
-0.023064 -0.032759 -0.028393 226 189 135
-0.0031448 -0.030487 -0.0202 125 104 75
-0.012527 -0.027121 -0.020686 134 115 80
-0.018063 -0.030709 -0.061609 255 215 152
-0.00099284 -0.027827 -0.019696 116 91 65
0.0009093 -0.021581 -0.019654 124 101 75
-0.0032841 -0.018769 -0.020131 100 81 59
0.0052538 -0.020338 -0.018717 140 117 85
-0.012252 -0.023283 -0.076082 217 177 108
-0.011861 -0.020902 -0.060298 237 200 138
0.00302 -0.012823 -0.046938 177 149 115
-0.0040722 -0.011957 -0.062571 93 69 37
-0.0029343 0.018549 -0.061311 96 78 50
-0.0012792 0.024321 -0.02705 58 43 25
-0.002732 0.02259 -0.061291 59 34 8
0.0010759 0.044498 -0.05749 92 71 54
-0.0030508 0.060909 -0.031039 254 218 158
-0.0027981 0.066363 -0.019851 158 135 102
-0.0033272 0.081992 -0.043367 182 147 95
-0.0036504 0.082838 -0.027098 153 126 82
-0.0028948 0.085371 -0.03949 219 184 127
-0.010849 0.090348 -0.043822 122 95 54
-0.006809 0.097977 -0.025509 136 113 78
-0.0063563 0.098066 -0.051102 161 128 76
-0.007271 0.10373 -0.030497 136 111 78
-0.0063751 0.10709 -0.031225 145 125 85
-0.02112 0.11418 -0.05267 82 60 29
-0.018055 -0.028033 -0.024913 174 137 95
-0.017732 -0.031136 -0.076207 233 196 137
-0.017532 -0.029964 -0.086852 174 144 97
-0.011387 -0.020968 -0.034092 241 206 153
-0.0071699 -0.019752 -0.025436 176 144 102
-0.011076 -0.021129 -0.045848 219 186 126
-0.012706 -0.023512 -0.081314 158 118 62
0.0031834 -0.014451 -0.019879 140 112 75
0.0031834 -0.014451 -0.019879 140 112 75
0.00073817 -0.0091378 -0.039659 221 176 107
-0.0039006 0.054123 -0.069978 183 154 98
-0.0043887 0.080108 -0.055489 198 168 124
-0.015148 0.092234 -0.07699 170 146 91
-0.012803 0.11075 -0.040946 126 103 65
-0.016662 -0.032508 -0.022379 117 97 66
0.0091524 -0.034737 -0.019308 128 105 73
-0.0060809 -0.015553 -0.044473 243 207 146
-0.006737 -0.014507 -0.060187 198 163 101
-0.0061162 -0.015268 -0.073449 239 204 133
-0.0050324 0.0717 -0.059273 207 177 123
-0.012578 0.092807 -0.06069 185 158 105
-0.020713 0.093382 -0.060889 171 141 87
-0.0063926 0.10115 -0.04121 172 140 98
-0.0067644 -0.015465 -0.040021 143 107 58
-0.011589 0.09041 -0.044514 115 88 49
-0.017507 0.11145 -0.043841 174 154 104
-0.021326 -0.035215 -0.087606 250 219 155
-0.012134 -0.026022 -0.035882 224 178 122
-0.01449 -0.026418 -0.062717 196 163 108
-0.0070886 -0.01483 -0.022057 129 103 69
-0.0016148 0.036589 -0.064664 216 176 106
-0.0024311 -0.0043756 -0.065727 231 194 127
-0.0042184 0.07344 -0.052703 219 185 130
-0.007627 -0.02068 -0.017629 113 91 64
-0.0048058 0.081758 -0.050902 226 192 130
-0.011228 0.10646 -0.040077 69 50 22
-0.0014876 0.057648 -0.066246 225 193 128
-0.0081525 0.08135 -0.032583 67 38 3
-0.0096709 0.097056 -0.039983 162 128 81
-0.019677 -0.033268 -0.080351 255 232 171
0.0019394 0.10123 -0.033344 158 138 94
-0.021333 -0.033414 -0.019673 113 93 62
-0.023484 -0.032462 -0.032686 196 160 111
-0.022884 -0.027918 -0.018946 129 109 75
-0.02416 -0.032396 -0.054912 255 234 175
0.0069897 -0.045162 -0.091526 255 230 162
-0.013752 -0.026935 -0.041333 206 171 119
-0.012905 -0.023449 -0.037661 241 199 136
-0.016012 -0.028058 -0.072733 250 217 150
-0.017683 -0.02773 -0.076419 192 160 109
-0.012268 -0.020313 -0.069032 219 186 125
-0.0014631 -0.013011 -0.028536 72 55 37
-0.0027683 -0.014187 -0.047941 182 152 110
0.048706 -0.01656 -0.044034 126 96 59
0.004197 0.0098916 -0.057405 112 80 38
0.0030563 0.017016 -0.056534 104 72 26
-0.00036234 0.043831 -0.024708 117 98 75
-0.0032575 0.060064 -0.023312 90 71 45
-0.0025447 0.061647 -0.048939 234 198 138
-0.0034542 0.076513 -0.043255 234 205 148
-0.0061854 0.085631 -0.043896 196 165 116
-0.013451 0.092668 -0.041471 207 181 129
-0.0033809 0.095799 -0.025112 126 110 79
-0.014897 0.097828 -0.067603 58 41 23
-0.015219 0.099735 -0.064076 63 50 22
-0.0058336 0.10298 -0.043638 159 125 83
-0.0074125 0.10371 -0.030379 156 132 89
-0.021054 0.11426 -0.048729 114 104 70
-0.022388 0.11566 -0.049059 129 117 75
-0.00071378 -0.034642 -0.019471 89 66 40
-0.012289 -0.020907 -0.021372 116 93 62
-0.015284 -0.026185 -0.065408 199 167 115
-0.014451 -0.028861 -0.08584 240 203 129
0.066041 -0.037048 -0.035513 151 124 84
-0.010347 -0.020223 -0.053026 216 180 123
0.0039564 -0.017929 -0.019991 145 121 86
0.0039564 -0.017929 -0.019991 145 121 86
-0.0021009 -0.011943 -0.061066 156 120 67
0.0034908 0.0015884 -0.057025 80 50 12
-0.0017229 0.0048836 -0.061293 183 143 79
0.0044123 0.033537 -0.057843 68 42 7
-0.0052797 0.061197 -0.069987 85 57 18
-0.0049987 0.071768 -0.024378 114 88 53
-0.0063231 0.072523 -0.045114 240 207 146
-0.0045779 0.075041 -0.044765 211 172 116
-0.0044459 0.075632 -0.055641 202 174 130
-0.013011 0.09462 -0.071687 83 57 23
-0.015541 0.095095 -0.076218 88 64 30
-0.014439 0.11152 -0.039946 128 103 63
-0.020951 0.11322 -0.046267 101 90 60
-0.0028873 0.11553 -0.044119 132 106 74
-0.0028873 0.11553 -0.044119 132 106 74
-0.025186 -0.037498 -0.044152 76 45 12
-0.024459 -0.033978 -0.023209 123 102 71
-0.020313 -0.027194 -0.061307 155 117 60
-0.006617 -0.018347 -0.037135 137 95 45
0.0011271 -0.012941 -0.024635 115 90 62
0.001856 -0.012145 -0.057551 107 72 35
0.0033398 -0.0086321 -0.057942 109 75 34
0.00075399 0.018475 -0.059785 64 36 2
0.00097894 0.018451 -0.05996 64 36 2
-0.0037236 0.057 -0.023806 120 100 68
-0.0044375 0.057894 -0.068743 226 195 130
-0.0044799 0.068328 -0.021506 122 100 66
-0.0044799 0.068328 -0.021506 122 100 66
-0.0046764 0.069977 -0.043853 199 163 109
-0.0065112 0.072353 -0.026618 144 120 81
-0.0054392 0.093527 -0.025585 78 61 37
-0.013713 0.093183 -0.053883 186 157 104
-0.0072193 0.09565 -0.02725 147 128 91
-0.039634 -0.037767 -0.10764 44 35 29
-0.019314 -0.035365 -0.089236 240 206 143
-0.0036313 0.064833 -0.067455 205 172 112
-0.0067403 0.086092 -0.033383 127 106 69
-0.0086187 0.094784 -0.027783 109 95 65
-0.013399 0.10824 -0.038146 115 93 60
-0.02602 -0.038355 -0.052332 58 41 32
-0.022241 -0.035547 -0.050124 254 220 158
-0.0064322 -0.014853 -0.051639 224 189 131
-0.012846 0.090631 -0.043646 112 89 45
-0.0098671 0.091346 -0.031094 128 109 77
-0.0098671 0.091346 -0.031094 128 109 77
-0.022198 0.10647 -0.065398 163 148 99
0.018237 -0.0334 -0.019661 144 117 81
-0.0069679 0.11596 -0.043987 140 115 70
-0.019929 -0.022846 -0.043853 236 195 134
-0.019929 -0.022846 -0.043853 236 195 134
0.0029304 -0.033861 -0.017386 128 105 74
-0.01646 -0.029294 -0.019932 130 108 77
-0.014338 -0.027862 -0.022643 123 100 71
-0.017762 -0.027814 -0.030009 223 194 146
-0.0018643 -0.027571 -0.018784 129 107 78
-0.010829 -0.025556 -0.01956 130 108 79
-0.017621 -0.030652 -0.076366 228 193 134
-0.011737 -0.023812 -0.038719 234 195 131
-0.010951 -0.020852 -0.034576 217 188 139
-0.011678 -0.021063 -0.055074 209 171 111
-0.01082 -0.020888 -0.06118 234 199 135
-0.0069284 -0.017866 -0.042914 219 177 115
-0.0031113 -0.013825 -0.019262 131 109 75
0.042027 -0.022385 -0.027856 110 90 67
-0.0020944 -0.012745 -0.027987 66 51 33
0.0454 -0.015382 -0.029079 128 100 68
0.0030678 -0.010746 -0.055598 157 127 87
0.062965 -0.010291 -0.050412 114 76 41
0.061691 -0.0069677 -0.052723 105 66 16
0.063218 -0.0012156 -0.051046 141 110 75
0.072389 0.0079679 -0.052778 132 105 74
0.07206 0.027708 -0.05458 147 114 80
0.072238 0.044906 -0.055826 140 110 70
0.062868 0.048834 -0.055913 136 105 59
-0.0044891 0.060193 -0.022223 71 52 27
-0.0025653 0.061586 -0.044106 228 190 130
0.00030387 0.067619 -0.01843 166 140 99
0.004722 0.071808 -0.022058 146 117 78
-0.0049804 0.078931 -0.027177 57 41 27
-0.0049804 0.078931 -0.027177 57 41 27
0.034815 0.079761 -0.003253 188 153 107
0.034815 0.079761 -0.003253 188 153 107
-0.0041228 0.083096 -0.044974 147 118 73
-0.006447 0.081904 -0.068942 205 179 127
-0.0054087 0.087643 -0.02721 125 99 65
0.0014749 0.090363 -0.028051 152 127 88
-0.0071961 0.094712 -0.062243 126 97 61
-0.0098322 0.095396 -0.064207 133 109 72
-0.0051909 0.10387 -0.028309 177 155 110
-0.014047 0.10352 -0.056815 51 40 19
-0.014047 0.10352 -0.056815 51 40 19
-0.0068293 0.10409 -0.03672 186 164 122
-0.023377 0.11433 -0.051248 58 38 10
-0.018791 -0.031654 -0.021202 117 95 61
-0.015982 -0.03177 -0.031886 211 179 123
-0.018293 -0.027593 -0.034181 230 200 157
-0.01854 -0.027133 -0.047181 245 214 158
-0.011251 -0.02075 -0.040115 198 164 118
0.002705 -0.014273 -0.018983 137 112 75
-0.0059206 -0.014838 -0.052598 227 193 135
-0.0028871 -0.013336 -0.044156 180 149 102
-0.0059301 -0.014898 -0.073617 243 210 140
0.042492 -0.01297 -0.034203 181 153 117
0.06883 0.043398 -0.055573 146 115 80
0.06905 0.047697 -0.055647 126 101 73
-0.0038217 0.059323 -0.043491 210 172 112
0.0635 0.062912 -0.054798 147 120 79
-0.0071891 0.098129 -0.025106 136 114 76
-0.0071053 0.10008 -0.031647 153 132 91
-0.0072298 0.1001 -0.031526 153 132 91
-0.0073118 0.10629 -0.035622 150 134 90
-0.0072371 0.10886 -0.032534 156 133 95
-0.015948 -0.030245 0.029157 41 33 31
-0.0089542 -0.022079 -0.05109 237 200 144
-0.013556 -0.023149 -0.080589 71 59 40
0.072338 -0.0095939 -0.050288 122 93 63
0.0027579 0.023216 -0.056997 152 122 82
0.068554 0.025987 -0.054387 129 99 61
-0.0023865 0.050248 -0.06503 191 163 111
-0.005843 0.071652 -0.058484 193 162 109
0.0076193 0.073774 -0.027547 138 110 71
-0.0070943 0.084856 -0.068113 198 170 117
-0.014639 0.092866 -0.065589 173 154 110
-0.011503 0.095778 -0.068081 60 39 13
-0.017125 0.096281 -0.078199 201 188 134
-0.013743 0.11177 -0.040568 136 113 68
-0.045291 -0.035412 -0.080547 44 35 27
-0.045291 -0.035412 -0.080547 44 35 27
-0.032201 -0.036691 -0.095353 44 34 29
-0.0072082 -0.015147 -0.039757 166 131 81
0.068552 -0.012748 -0.04679 161 128 92
-0.0019883 0.026398 -0.064545 198 166 106
0.067456 0.062805 -0.052901 158 130 87
0.067207 0.063031 -0.052668 158 130 87
-0.014686 0.092236 -0.074869 196 174 119
-0.023784 -0.034531 -0.032961 233 205 154
-0.028714 -0.031792 -0.035976 233 206 157
-0.012997 -0.026178 -0.03531 221 180 127
-0.014286 -0.026176 -0.062963 193 165 115
-0.014384 0.090849 -0.042227 116 95 52
0.016698 -0.032184 -0.017915 143 119 84
0.071366 0.056498 -0.05506 169 139 99
-0.0090961 -0.021967 -0.016609 125 102 73
-0.0028358 -0.015598 -0.048109 234 204 149
-0.0053857 0.056506 -0.031502 121 101 69
-0.0042616 0.058222 -0.063664 233 203 134
0.00042421 0.077469 -0.026885 55 34 13
0.038756 -0.053636 -0.14767 253 231 169
-0.018981 -0.03333 -0.080292 253 231 169
-0.021291 -0.03324 -0.034895 195 160 111
-0.019547 -0.032232 -0.048152 212 177 126
-0.017085 -0.032989 -0.065458 224 192 138
-0.0092119 -0.020033 -0.033317 203 165 122
0.082172 -0.033674 -0.043218 51 33 26
-0.0069004 -0.017984 -0.036746 221 180 121
0.055958 -0.016501 -0.021929 173 146 111
0.0059021 -0.013734 -0.017964 142 111 76
0.0017267 -0.013677 -0.053374 204 177 139
0.046467 -0.013706 -0.027911 167 139 103
0.039103 -0.014507 -0.038665 124 90 56
0.039366 -0.012801 -0.035999 182 150 109
0.033725 -0.011837 -0.041789 194 166 128
0.060997 -0.013475 -0.042932 157 127 89
0.063013 -0.00081627 -0.050653 72 44 16
-0.0027297 0.018542 -0.061432 147 119 70
0.061611 0.015806 -0.053356 164 129 77
0.061311 0.015888 -0.053014 164 129 77
0.0015384 0.032481 -0.057327 157 135 104
0.0015384 0.032481 -0.057327 157 135 104
0.06295 0.041261 -0.055833 162 128 80
-0.00129 0.053207 -0.021531 167 131 82
-0.0050657 0.060191 -0.021454 69 50 24
0.069882 0.053624 -0.053555 81 59 28
-0.0065193 0.072012 -0.022774 137 114 76
0.001971 0.072253 -0.018971 144 115 71
-0.0048406 0.074956 -0.044405 224 193 137
0.046474 0.072183 -0.052521 129 99 61
0.040504 0.075987 -0.052298 129 99 59
0.012193 0.10342 0.0080201 117 94 63
0.04021 0.081348 -0.051982 148 121 77
0.045931 0.091073 -0.052893 133 108 67
0.042647 0.092538 -0.052815 137 111 77
-0.0073661 0.096271 -0.058567 142 111 74
-0.013001 0.10168 -0.062184 67 54 28
-0.013001 0.10168 -0.062184 67 54 28
-0.0074888 0.10723 -0.029961 149 125 82
-0.023004 -0.034622 -0.024367 123 100 65
-0.021889 -0.031612 -0.037301 225 189 134
-0.021889 -0.031612 -0.037301 225 189 134
-0.0013387 -0.020653 -0.01743 120 98 67
0.0037979 -0.019944 -0.017518 122 102 72
-0.0093658 -0.021962 -0.051479 245 210 153
-0.0092001 -0.020411 -0.054557 216 181 129
-0.010181 -0.019439 -0.065017 195 164 108
0.00922 -0.012764 -0.021704 140 107 73
-0.0053659 -0.015199 -0.074338 228 196 128
-0.0023293 0.0051654 -0.060691 96 64 19
0.06229 0.030949 -0.054598 183 148 98
-0.0034387 0.066409 -0.019238 158 140 103
0.058279 0.068 -0.053326 157 129 88
0.0070053 0.090747 -0.028219 123 93 57
0.038304 0.089947 -0.052553 157 129 89
0.0037207 0.093929 -0.024014 134 106 67
-7.5883e-05 0.095906 -0.022804 165 148 103
-0.013796 0.095197 -0.078484 65 47 17
-0.0067938 0.097699 -0.050531 186 153 100
-0.0071176 0.10329 -0.042393 174 142 98
0.015369 -0.021258 -0.015219 161 138 95
-0.0093015 -0.021879 -0.080831 144 111 58
0.0081964 -0.0096488 -0.020849 171 141 101
0.076186 -0.015361 -0.047559 178 147 108
-0.0056745 0.057211 -0.021749 125 102 73
-0.0041593 0.065488 -0.067163 213 184 121
-0.004473 0.069659 -0.044022 212 181 128
0.052706 0.076191 -0.053863 138 111 69
-0.0057691 0.093741 -0.025454 66 50 21
-0.0057691 0.093741 -0.025454 66 50 21
-0.011455 0.092769 -0.063267 177 150 105
-0.0076929 0.10119 -0.039624 151 123 76
0.038639 0.10431 -0.054604 155 130 93
-0.013711 0.11196 -0.040597 137 114 67
-0.0037815 0.11581 -0.043285 133 109 63
-0.0038734 0.11582 -0.043164 133 109 63
-0.021003 -0.040184 -0.071683 57 45 38
-0.016997 -0.02907 -0.017865 128 110 77
-0.01672 -0.029121 -0.039979 240 211 160
-0.0062168 -0.017297 -0.017314 89 71 45
-0.0095605 -0.018372 -0.027853 212 169 115
0.071504 -0.019442 -0.042965 139 106 70
-0.0016625 0.0060061 -0.065976 206 172 114
-0.0023097 0.036488 -0.063975 226 200 136
0.061192 0.071464 -0.053545 145 118 78
-0.0074232 0.086076 -0.032774 137 114 73
0.0072416 0.11717 -0.044296 148 132 110
-0.021116 -0.035595 -0.063112 255 232 167
0.061205 0.052986 -0.055836 120 90 51
0.055878 0.058638 -0.055083 80 57 28
0.055878 0.058638 -0.055083 80 57 28
0.055878 0.058638 -0.055083 80 57 28
0.070628 0.057344 -0.053677 161 135 95
-0.0049938 0.072963 -0.052004 231 200 143
-0.018505 0.10367 -0.07615 203 178 125
-0.018981 0.10952 -0.06123 161 140 100
-0.015284 0.11611 -0.045327 146 121 74
0.038217 -0.012267 -0.044015 158 132 95
0.074558 0.05036 -0.054326 93 68 38
-0.006676 0.080087 -0.03389 73 46 11
0.051426 0.082255 -0.055152 156 128 89
0.00037096 0.096661 -0.051417 179 147 99
0.066672 0.0029723 -0.057491 208 169 116
0.018798 -0.026832 -0.017907 147 121 82
0.067828 -0.014916 -0.055183 153 126 96
-0.015867 -0.025669 -0.04748 219 185 133
-0.015512 -0.025999 -0.047956 219 185 133
-0.011798 -0.030422 -0.019415 116 97 61
-0.012255 -0.026865 -0.021273 106 84 52
0.021374 -0.028746 -0.017611 126 99 65
-0.011961 -0.020934 -0.021987 131 109 72
-0.013862 -0.026464 -0.054414 207 179 129
-0.011163 -0.025495 -0.060026 223 188 133
0.0023129 -0.016881 -0.018799 128 102 70
0.0023129 -0.016881 -0.018799 128 102 70
0.05231 -0.024833 -0.028339 137 105 66
-0.0020715 -0.014218 -0.021055 132 108 73
-0.011513 -0.020479 -0.060036 236 202 141
0.073034 -0.025316 -0.046564 123 93 56
0.074019 -0.024258 -0.043805 146 114 76
0.063643 -0.0013798 -0.051452 79 46 12
0.031973 0.0037414 -0.05164 98 72 47
0.069739 0.019652 -0.052986 103 75 39
-0.0047979 0.053572 -0.064636 179 153 103
-0.0017657 0.068117 -0.01976 159 137 92
-0.0060375 0.085535 -0.044536 217 186 137
0.035271 0.091289 -0.052597 143 114 74
0.038955 0.099659 -0.05273 156 130 91
-0.0047377 0.10385 -0.029092 173 152 105
0.029145 0.10436 -0.056431 155 126 80
0.0033442 -0.033957 -0.01824 129 109 71
-0.016898 -0.02909 -0.019341 118 98 68
-0.01114 -0.025119 -0.019374 115 93 59
0.022833 -0.026756 -0.016235 127 100 68
0.049073 -0.025734 -0.028695 150 121 83
-0.010598 -0.025363 -0.079691 198 174 129
0.063329 -0.012594 -0.047599 177 144 107
0.063329 -0.012594 -0.047599 177 144 107
0.029753 -0.0068132 -0.050807 138 104 63
0.063625 -0.010484 -0.051051 102 67 31
0.0024911 0.0020165 -0.055862 73 47 14
0.03002 0.008466 -0.052234 119 86 50
-0.0028071 0.050132 -0.064305 185 159 111
0.0032327 0.069914 -0.019053 139 109 69
-0.0034745 0.073446 -0.024171 156 129 86
0.043716 0.074516 -0.052827 139 114 70
-0.006593 0.084728 -0.068721 202 176 122
0.0004187 0.090571 -0.027035 134 110 69
0.047734 0.088913 -0.053057 158 134 100
0.036587 0.089369 -0.053366 150 123 79
-0.00061069 0.092709 -0.027462 90 68 48
-0.0032258 0.095644 -0.026143 156 142 104
0.0073904 0.095961 -0.025744 113 87 54
-0.011998 0.094597 -0.073004 76 56 23
-0.013877 0.0953 -0.078299 67 51 24
0.040589 0.095785 -0.053608 134 117 89
0.037429 0.097863 -0.053457 160 133 88
0.037694 0.1009 -0.054947 172 143 97
-0.0075505 0.10415 -0.031844 164 140 98
-0.019085 0.11291 -0.048748 55 46 19
0.050891 -0.086426 -0.17032 163 142 100
-0.0015911 -0.033992 -0.018591 109 88 58
0.053155 -0.034314 -0.029269 156 126 86
0.039499 -0.015117 -0.031314 70 43 13
0.04892 -0.012459 -0.042645 148 122 83
-0.0060205 0.071545 -0.058213 87 62 28
0.053935 0.075929 -0.056097 142 113 78
0.035303 -0.033198 -0.026322 136 108 72
0.033635 -0.022339 -0.027564 137 113 81
-0.0030852 -0.009418 -0.034213 64 37 16
0.038292 0.0076827 -0.056551 144 112 70
-0.0020218 0.013726 -0.065483 130 97 54
-0.01436 0.09219 -0.075038 194 174 121
-0.0079555 -0.014298 -0.021872 140 114 73
0.069179 -0.012912 -0.047237 160 126 88
0.06879 -0.00097219 -0.052251 117 89 59
-0.0013495 0.065478 -0.019325 148 128 87
-0.003862 0.071942 -0.037151 139 117 86
0.061678 0.071315 -0.054202 148 118 78
-0.016987 0.1111 -0.044878 112 87 45
-0.0057884 -0.032726 -0.019784 114 94 58
-0.012765 -0.021216 -0.023923 124 98 61
0.072708 0.057081 -0.056412 169 139 96
-0.0039027 0.06401 -0.044617 248 216 156
0.033375 0.10758 -0.056208 159 133 83
-0.0060728 0.057927 -0.06065 230 201 140
0.00023792 -0.0083387 -0.024059 129 109 75
-0.00073521 0.07775 -0.025899 48 34 21
0.066738 0.035654 -0.059432 161 124 81
-0.015577 0.10463 -0.037792 86 66 42
-0.015625 -0.026352 -0.019373 122 99 66
0.043444 -0.033507 -0.031608 143 115 79
-0.021728 -0.025479 -0.073074 53 42 26
0.079729 -0.032479 -0.049649 154 119 76
0.095964 -0.038784 -0.079856 147 113 71
0.032725 -0.013669 -0.043636 111 85 48
0.031593 -0.011514 -0.054723 124 91 54
0.069353 0.0046602 -0.055077 109 77 40
0.032066 0.028381 -0.056582 154 126 74
0.032066 0.028381 -0.056582 154 126 74
-0.0020313 0.039966 -0.053355 148 114 57
-0.0020313 0.039966 -0.053355 148 114 57
0.064105 0.041299 -0.058045 162 127 77
0.029561 0.044858 -0.055808 77 51 16
0.029561 0.044858 -0.055808 77 51 16
0.064696 0.043895 -0.058839 145 112 72
0.064356 0.048973 -0.058841 108 83 52
0.06812 0.051516 -0.055703 68 49 26
-0.0015401 0.07547 -0.027324 134 108 70
0.034096 0.094958 -0.054222 131 103 65
0.033578 0.099871 -0.055321 168 137 88
0.033578 0.099871 -0.055321 168 137 88
0.03379 0.10405 -0.055855 167 138 89
0.038272 0.10676 -0.05902 176 145 97
0.038102 0.10964 -0.061087 182 156 116
0.019881 -0.041307 -0.016228 41 34 32
-0.049108 -0.030488 -0.040918 49 39 31
-0.0016515 -0.014673 -0.025943 133 108 79
0.0001496 -0.01261 -0.023495 113 89 56
0.061397 -0.023739 -0.043393 127 94 59
0.0091473 -0.012549 -0.020997 140 110 68
0.029444 -0.012187 -0.046878 189 158 123
-0.005426 0.0088654 -0.057523 174 145 93
